ply
format ascii 1.0
element vertex 1347
property float32 x
property float32 y
property float32 z
property float32 I
end_header
-2.6367 0.5564 -1.0327 0.9885
-2.6340 0.5510 -1.0313 0.9885
-2.6286 0.5403 -1.0284 0.9886
-2.6231 0.5297 -1.0255 0.9886
-2.6204 0.5244 -1.0241 0.9886
-2.6120 0.5085 -1.0198 0.9887
-2.6092 0.5032 -1.0183 0.9887
-2.6065 0.4980 -1.0169 0.9887
-2.6008 0.4875 -1.0140 0.9887
-2.5980 0.4823 -1.0126 0.9887
-2.5952 0.4770 -1.0112 0.9888
-2.5781 0.4460 -1.0026 0.9889
-2.5752 0.4409 -1.0012 0.9889
-2.5715 0.4310 -0.9992 0.9889
-2.5697 0.4261 -0.9982 0.9889
-2.5644 0.4115 -0.9953 0.9889
-2.5626 0.4066 -0.9943 0.9889
-2.5586 0.3922 -0.9920 0.9890
-2.5591 0.3877 -0.9919 0.9890
-2.5595 0.3832 -0.9918 0.9890
-2.5599 0.3787 -0.9917 0.9890
-2.5604 0.3742 -0.9916 0.9890
-2.5608 0.3697 -0.9915 0.9890
-2.5618 0.3607 -0.9914 0.9890
-2.5635 0.3473 -0.9914 0.9890
-2.5652 0.3339 -0.9913 0.9890
-2.5657 0.3294 -0.9913 0.9890
-2.5663 0.3249 -0.9913 0.9890
-2.5673 0.3159 -0.9912 0.9890
-2.5678 0.3114 -0.9912 0.9890
-2.5692 0.2980 -0.9912 0.9890
-2.5697 0.2935 -0.9912 0.9890
-2.5706 0.2845 -0.9911 0.9890
-2.5710 0.2800 -0.9911 0.9890
-2.5714 0.2755 -0.9911 0.9890
-2.5719 0.2710 -0.9910 0.9890
-2.5723 0.2665 -0.9910 0.9890
-2.5738 0.2485 -0.9909 0.9890
-2.5742 0.2440 -0.9909 0.9890
-2.5745 0.2395 -0.9909 0.9890
-2.5749 0.2350 -0.9908 0.9890
-2.5758 0.2215 -0.9907 0.9890
-2.5764 0.2125 -0.9907 0.9890
-2.5771 0.2035 -0.9907 0.9890
-2.5774 0.1990 -0.9907 0.9890
-2.5784 0.1855 -0.9906 0.9890
-2.5797 0.1630 -0.9906 0.9890
-2.5805 0.1449 -0.9905 0.9890
-2.5807 0.1404 -0.9904 0.9890
-2.5812 0.1269 -0.9904 0.9890
-2.5816 0.1134 -0.9903 0.9890
-2.5818 0.0998 -0.9901 0.9890
-2.5819 0.0953 -0.9901 0.9890
-2.5819 0.0908 -0.9901 0.9890
-2.5820 0.0683 -0.9898 0.9890
-2.5820 0.0638 -0.9898 0.9890
-2.5819 0.0547 -0.9897 0.9890
-2.5816 0.0322 -0.9894 0.9890
-2.5814 0.0277 -0.9893 0.9890
-2.5813 0.0232 -0.9893 0.9890
-2.5810 0.0142 -0.9891 0.9890
-2.5809 0.0097 -0.9891 0.9890
-2.5805 0.0006 -0.9889 0.9890
-2.5810 -0.0129 -0.9891 0.9890
-2.5811 -0.0174 -0.9892 0.9890
-2.5813 -0.0219 -0.9892 0.9890
-2.5814 -0.0264 -0.9893 0.9890
-2.5815 -0.0309 -0.9894 0.9890
-2.5816 -0.0354 -0.9894 0.9890
-2.5817 -0.0399 -0.9895 0.9890
-2.5819 -0.0489 -0.9896 0.9890
-2.5819 -0.0535 -0.9897 0.9890
-2.5820 -0.0580 -0.9897 0.9890
-2.5820 -0.0715 -0.9899 0.9890
-2.5820 -0.0760 -0.9899 0.9890
-2.5819 -0.0895 -0.9900 0.9890
-2.5815 -0.1166 -0.9903 0.9890
-2.5812 -0.1256 -0.9903 0.9890
-2.5806 -0.1437 -0.9905 0.9890
-2.5802 -0.1527 -0.9905 0.9890
-2.5800 -0.1572 -0.9905 0.9890
-2.5795 -0.1662 -0.9906 0.9890
-2.5793 -0.1707 -0.9906 0.9890
-2.5790 -0.1752 -0.9906 0.9890
-2.5787 -0.1797 -0.9906 0.9890
-2.5784 -0.1842 -0.9906 0.9890
-2.5778 -0.1932 -0.9906 0.9890
-2.5772 -0.2022 -0.9907 0.9890
-2.5756 -0.2247 -0.9908 0.9890
-2.5753 -0.2292 -0.9908 0.9890
-2.5749 -0.2337 -0.9908 0.9890
-2.5746 -0.2382 -0.9909 0.9890
-2.5743 -0.2427 -0.9909 0.9890
-2.5724 -0.2652 -0.9910 0.9890
-2.5720 -0.2697 -0.9910 0.9890
-2.5707 -0.2832 -0.9911 0.9890
-2.5703 -0.2877 -0.9911 0.9890
-2.5698 -0.2922 -0.9911 0.9890
-2.5694 -0.2967 -0.9912 0.9890
-2.5689 -0.3012 -0.9912 0.9890
-2.5664 -0.3236 -0.9913 0.9890
-2.5648 -0.3371 -0.9913 0.9890
-2.5637 -0.3460 -0.9914 0.9890
-2.5631 -0.3505 -0.9914 0.9890
-2.5625 -0.3550 -0.9914 0.9890
-2.5613 -0.3639 -0.9914 0.9890
-2.5601 -0.3774 -0.9917 0.9890
-2.5596 -0.3819 -0.9918 0.9890
-2.5592 -0.3865 -0.9919 0.9890
-2.5621 -0.4052 -0.9941 0.9889
-2.5639 -0.4101 -0.9950 0.9889
-2.5674 -0.4198 -0.9970 0.9889
-2.5692 -0.4247 -0.9979 0.9889
-2.5710 -0.4296 -0.9989 0.9889
-2.5744 -0.4395 -1.0008 0.9889
-2.5801 -0.4497 -1.0037 0.9888
-2.5830 -0.4549 -1.0051 0.9888
-2.6028 -0.4912 -1.0151 0.9887
-2.6085 -0.5017 -1.0179 0.9887
-2.6112 -0.5070 -1.0194 0.9887
-2.6168 -0.5175 -1.0222 0.9886
-2.6196 -0.5228 -1.0237 0.9886
-2.6278 -0.5388 -1.0280 0.9886
-2.6333 -0.5495 -1.0309 0.9885
-2.4281 0.5479 -1.0188 0.9893
-2.4264 0.5431 -1.0176 0.9893
-2.4158 0.5142 -1.0109 0.9894
-2.4123 0.5047 -1.0087 0.9894
-2.4087 0.4951 -1.0064 0.9894
-2.4069 0.4904 -1.0053 0.9894
-2.4051 0.4856 -1.0042 0.9895
-2.4033 0.4809 -1.0031 0.9895
-2.3979 0.4668 -0.9998 0.9895
-2.3942 0.4574 -0.9976 0.9895
-2.3906 0.4481 -0.9954 0.9895
-2.3869 0.4388 -0.9933 0.9896
-2.3850 0.4341 -0.9922 0.9896
-2.3832 0.4295 -0.9911 0.9896
-2.3813 0.4249 -0.9900 0.9896
-2.3776 0.4156 -0.9879 0.9896
-2.3743 0.4022 -0.9856 0.9896
-2.3752 0.3939 -0.9854 0.9896
-2.3757 0.3897 -0.9853 0.9896
-2.3762 0.3855 -0.9852 0.9896
-2.3767 0.3813 -0.9852 0.9897
-2.3793 0.3562 -0.9846 0.9897
-2.3801 0.3479 -0.9845 0.9897
-2.3805 0.3437 -0.9844 0.9897
-2.3820 0.3269 -0.9840 0.9897
-2.3827 0.3186 -0.9839 0.9897
-2.3834 0.3102 -0.9837 0.9897
-2.3843 0.2976 -0.9834 0.9897
-2.3846 0.2934 -0.9833 0.9897
-2.3849 0.2892 -0.9832 0.9897
-2.3852 0.2851 -0.9831 0.9897
-2.3855 0.2809 -0.9831 0.9897
-2.3857 0.2767 -0.9830 0.9897
-2.3860 0.2725 -0.9829 0.9897
-2.3862 0.2683 -0.9828 0.9897
-2.3865 0.2641 -0.9827 0.9897
-2.3867 0.2599 -0.9826 0.9897
-2.3872 0.2515 -0.9824 0.9897
-2.3878 0.2390 -0.9821 0.9897
-2.3879 0.2348 -0.9820 0.9897
-2.3881 0.2306 -0.9819 0.9897
-2.3887 0.2138 -0.9816 0.9897
-2.3889 0.2096 -0.9815 0.9897
-2.3890 0.2054 -0.9814 0.9897
-2.3891 0.2012 -0.9813 0.9897
-2.3897 0.1761 -0.9807 0.9897
-2.3898 0.1677 -0.9805 0.9897
-2.3900 0.1468 -0.9800 0.9897
-2.3900 0.1426 -0.9799 0.9897
-2.3900 0.1384 -0.9798 0.9897
-2.3899 0.1259 -0.9795 0.9897
-2.3898 0.1133 -0.9792 0.9897
-2.3896 0.1008 -0.9789 0.9897
-2.3895 0.0966 -0.9788 0.9897
-2.3894 0.0924 -0.9787 0.9897
-2.3893 0.0882 -0.9786 0.9897
-2.3884 0.0590 -0.9778 0.9897
-2.3883 0.0548 -0.9777 0.9897
-2.3881 0.0506 -0.9776 0.9897
-2.3879 0.0465 -0.9775 0.9897
-2.3878 0.0381 -0.9774 0.9897
-2.3877 0.0339 -0.9773 0.9897
-2.3874 0.0173 -0.9771 0.9897
-2.3875 -0.0202 -0.9772 0.9897
-2.3876 -0.0244 -0.9772 0.9897
-2.3877 -0.0328 -0.9773 0.9897
-2.3878 -0.0411 -0.9774 0.9897
-2.3879 -0.0453 -0.9775 0.9897
-2.3882 -0.0536 -0.9777 0.9897
-2.3888 -0.0703 -0.9781 0.9897
-2.3890 -0.0745 -0.9782 0.9897
-2.3891 -0.0787 -0.9783 0.9897
-2.3893 -0.0870 -0.9785 0.9897
-2.3894 -0.0912 -0.9786 0.9897
-2.3896 -0.0996 -0.9788 0.9897
-2.3897 -0.1038 -0.9789 0.9897
-2.3898 -0.1163 -0.9793 0.9897
-2.3900 -0.1330 -0.9797 0.9897
-2.3899 -0.1540 -0.9802 0.9897
-2.3899 -0.1582 -0.9803 0.9897
-2.3897 -0.1749 -0.9807 0.9897
-2.3896 -0.1791 -0.9808 0.9897
-2.3895 -0.1875 -0.9810 0.9897
-2.3894 -0.1917 -0.9810 0.9897
-2.3892 -0.2001 -0.9812 0.9897
-2.3889 -0.2084 -0.9814 0.9897
-2.3888 -0.2126 -0.9815 0.9897
-2.3882 -0.2294 -0.9819 0.9897
-2.3878 -0.2378 -0.9821 0.9897
-2.3874 -0.2462 -0.9823 0.9897
-2.3872 -0.2503 -0.9824 0.9897
-2.3847 -0.2922 -0.9833 0.9897
-2.3844 -0.2964 -0.9834 0.9897
-2.3838 -0.3048 -0.9836 0.9897
-2.3831 -0.3132 -0.9837 0.9897
-2.3828 -0.3174 -0.9838 0.9897
-2.3825 -0.3216 -0.9839 0.9897
-2.3821 -0.3258 -0.9840 0.9897
-2.3814 -0.3341 -0.9842 0.9897
-2.3802 -0.3467 -0.9844 0.9897
-2.3790 -0.3592 -0.9847 0.9897
-2.3786 -0.3634 -0.9848 0.9897
-2.3777 -0.3718 -0.9850 0.9897
-2.3768 -0.3802 -0.9851 0.9897
-2.3759 -0.3885 -0.9853 0.9896
-2.3744 -0.4011 -0.9855 0.9896
-2.3744 -0.4053 -0.9858 0.9896
-2.3758 -0.4098 -0.9867 0.9896
-2.3772 -0.4143 -0.9876 0.9896
-2.3789 -0.4189 -0.9886 0.9896
-2.3827 -0.4282 -0.9908 0.9896
-2.3845 -0.4328 -0.9919 0.9896
-2.3882 -0.4421 -0.9940 0.9896
-2.3919 -0.4514 -0.9962 0.9895
-2.3937 -0.4561 -0.9973 0.9895
-2.3955 -0.4608 -0.9984 0.9895
-2.3973 -0.4654 -0.9995 0.9895
-2.4028 -0.4796 -1.0028 0.9895
-2.4082 -0.4938 -1.0061 0.9894
-2.4135 -0.5081 -1.0095 0.9894
-2.4189 -0.5224 -1.0128 0.9894
-2.4206 -0.5272 -1.0139 0.9893
-2.4241 -0.5369 -1.0162 0.9893
-2.4259 -0.5417 -1.0173 0.9893
-2.4311 -0.5562 -1.0207 0.9893
-2.4329 -0.5611 -1.0218 0.9893
-2.2814 0.5526 -1.0230 0.9898
-2.2789 0.5436 -1.0211 0.9898
-2.2777 0.5391 -1.0201 0.9898
-2.2764 0.5346 -1.0191 0.9898
-2.2738 0.5256 -1.0171 0.9899
-2.2725 0.5212 -1.0161 0.9899
-2.2713 0.5167 -1.0151 0.9899
-2.2687 0.5078 -1.0132 0.9899
-2.2674 0.5033 -1.0122 0.9899
-2.2661 0.4989 -1.0112 0.9899
-2.2621 0.4856 -1.0083 0.9900
-2.2608 0.4812 -1.0074 0.9900
-2.2581 0.4724 -1.0054 0.9900
-2.2568 0.4680 -1.0045 0.9900
-2.2555 0.4636 -1.0035 0.9900
-2.2541 0.4593 -1.0026 0.9900
-2.2528 0.4549 -1.0016 0.9900
-2.2438 0.4368 -0.9962 0.9901
-2.2231 0.4127 -0.9854 0.9902
-2.2190 0.4079 -0.9833 0.9902
-2.2184 0.4038 -0.9827 0.9902
-2.2190 0.3999 -0.9827 0.9902
-2.2196 0.3960 -0.9826 0.9902
-2.2201 0.3921 -0.9825 0.9902
-2.2206 0.3882 -0.9825 0.9902
-2.2222 0.3765 -0.9823 0.9902
-2.2227 0.3726 -0.9822 0.9902
-2.2247 0.3570 -0.9820 0.9902
-2.2261 0.3452 -0.9818 0.9902
-2.2274 0.3335 -0.9816 0.9902
-2.2283 0.3257 -0.9814 0.9902
-2.2291 0.3179 -0.9813 0.9902
-2.2295 0.3139 -0.9812 0.9902
-2.2299 0.3100 -0.9812 0.9902
-2.2310 0.2983 -0.9810 0.9902
-2.2318 0.2905 -0.9808 0.9902
-2.2321 0.2865 -0.9807 0.9902
-2.2323 0.2826 -0.9807 0.9902
-2.2326 0.2787 -0.9806 0.9902
-2.2329 0.2748 -0.9805 0.9902
-2.2334 0.2669 -0.9803 0.9902
-2.2337 0.2630 -0.9802 0.9902
-2.2339 0.2591 -0.9801 0.9902
-2.2344 0.2512 -0.9799 0.9902
-2.2351 0.2395 -0.9797 0.9902
-2.2357 0.2277 -0.9794 0.9902
-2.2367 0.2041 -0.9788 0.9902
-2.2372 0.1884 -0.9785 0.9903
-2.2374 0.1806 -0.9783 0.9903
-2.2375 0.1767 -0.9782 0.9903
-2.2378 0.1649 -0.9779 0.9903
-2.2380 0.1531 -0.9776 0.9903
-2.2380 0.1492 -0.9775 0.9903
-2.2381 0.1414 -0.9773 0.9903
-2.2381 0.1375 -0.9772 0.9903
-2.2381 0.1296 -0.9771 0.9903
-2.2381 0.1218 -0.9769 0.9903
-2.2381 0.1179 -0.9768 0.9903
-2.2381 0.1140 -0.9767 0.9903
-2.2381 0.1100 -0.9766 0.9903
-2.2381 0.1061 -0.9765 0.9903
-2.2380 0.1022 -0.9764 0.9903
-2.2380 0.0944 -0.9762 0.9903
-2.2379 0.0905 -0.9761 0.9903
-2.2378 0.0865 -0.9760 0.9903
-2.2377 0.0787 -0.9758 0.9903
-2.2376 0.0748 -0.9757 0.9903
-2.2374 0.0670 -0.9755 0.9903
-2.2367 0.0435 -0.9750 0.9903
-2.2364 0.0357 -0.9748 0.9903
-2.2362 0.0318 -0.9747 0.9903
-2.2359 0.0240 -0.9745 0.9903
-2.2357 0.0201 -0.9744 0.9903
-2.2353 0.0123 -0.9742 0.9903
-2.2351 0.0084 -0.9741 0.9903
-2.2349 0.0045 -0.9740 0.9903
-2.2347 0.0006 -0.9739 0.9903
-2.2354 -0.0151 -0.9743 0.9903
-2.2356 -0.0190 -0.9744 0.9903
-2.2358 -0.0229 -0.9745 0.9903
-2.2360 -0.0268 -0.9746 0.9903
-2.2362 -0.0307 -0.9747 0.9903
-2.2368 -0.0463 -0.9750 0.9903
-2.2369 -0.0502 -0.9751 0.9903
-2.2370 -0.0541 -0.9752 0.9903
-2.2372 -0.0580 -0.9753 0.9903
-2.2373 -0.0619 -0.9754 0.9903
-2.2376 -0.0737 -0.9757 0.9903
-2.2377 -0.0815 -0.9759 0.9903
-2.2378 -0.0854 -0.9760 0.9903
-2.2379 -0.0933 -0.9762 0.9903
-2.2381 -0.1128 -0.9767 0.9903
-2.2381 -0.1168 -0.9767 0.9903
-2.2381 -0.1207 -0.9768 0.9903
-2.2381 -0.1246 -0.9769 0.9903
-2.2381 -0.1285 -0.9770 0.9903
-2.2381 -0.1324 -0.9771 0.9903
-2.2381 -0.1403 -0.9773 0.9903
-2.2381 -0.1442 -0.9774 0.9903
-2.2380 -0.1481 -0.9775 0.9903
-2.2379 -0.1560 -0.9777 0.9903
-2.2378 -0.1599 -0.9778 0.9903
-2.2377 -0.1677 -0.9780 0.9903
-2.2375 -0.1756 -0.9782 0.9903
-2.2374 -0.1795 -0.9782 0.9903
-2.2366 -0.2070 -0.9789 0.9902
-2.2362 -0.2148 -0.9791 0.9902
-2.2355 -0.2305 -0.9794 0.9902
-2.2353 -0.2344 -0.9795 0.9902
-2.2349 -0.2423 -0.9797 0.9902
-2.2347 -0.2462 -0.9798 0.9902
-2.2342 -0.2540 -0.9800 0.9902
-2.2340 -0.2580 -0.9801 0.9902
-2.2335 -0.2658 -0.9803 0.9902
-2.2332 -0.2697 -0.9804 0.9902
-2.2327 -0.2776 -0.9805 0.9902
-2.2324 -0.2815 -0.9806 0.9902
-2.2318 -0.2893 -0.9808 0.9902
-2.2300 -0.3089 -0.9812 0.9902
-2.2296 -0.3128 -0.9812 0.9902
-2.2288 -0.3207 -0.9814 0.9902
-2.2284 -0.3246 -0.9814 0.9902
-2.2280 -0.3285 -0.9815 0.9902
-2.2271 -0.3363 -0.9816 0.9902
-2.2262 -0.3441 -0.9817 0.9902
-2.2258 -0.3480 -0.9818 0.9902
-2.2239 -0.3637 -0.9821 0.9902
-2.2229 -0.3715 -0.9822 0.9902
-2.2192 -0.3988 -0.9826 0.9902
-2.2186 -0.4027 -0.9827 0.9902
-2.2302 -0.4209 -0.9891 0.9901
-2.2343 -0.4257 -0.9913 0.9901
-2.2426 -0.4354 -0.9956 0.9901
-2.2468 -0.4403 -0.9978 0.9901
-2.2497 -0.4449 -0.9994 0.9900
-2.2524 -0.4536 -1.0013 0.9900
-2.2537 -0.4580 -1.0023 0.9900
-2.2564 -0.4668 -1.0042 0.9900
-2.2591 -0.4756 -1.0061 0.9900
-2.2617 -0.4844 -1.0081 0.9900
-2.2644 -0.4932 -1.0100 0.9899
-2.2657 -0.4976 -1.0110 0.9899
-2.2696 -0.5110 -1.0139 0.9899
-2.2709 -0.5154 -1.0149 0.9899
-2.2747 -0.5288 -1.0178 0.9899
-2.2798 -0.5468 -1.0218 0.9898
-2.2823 -0.5559 -1.0237 0.9898
-2.2836 -0.5604 -1.0247 0.9898
-2.2848 -0.5649 -1.0257 0.9898
-2.1533 0.5575 -1.0296 0.9902
-2.1523 0.5533 -1.0287 0.9903
-2.1503 0.5448 -1.0268 0.9903
-2.1493 0.5405 -1.0258 0.9903
-2.1482 0.5363 -1.0249 0.9903
-2.1472 0.5320 -1.0240 0.9903
-2.1420 0.5109 -1.0193 0.9903
-2.1355 0.4858 -1.0137 0.9904
-2.1344 0.4816 -1.0128 0.9904
-2.1239 0.4676 -1.0067 0.9905
-2.1132 0.4536 -1.0005 0.9905
-2.1096 0.4490 -0.9984 0.9905
-2.1025 0.4399 -0.9943 0.9906
-2.0954 0.4307 -0.9902 0.9906
-2.0884 0.4217 -0.9862 0.9907
-2.0849 0.4172 -0.9842 0.9907
-2.0814 0.4127 -0.9822 0.9907
-2.0794 0.4010 -0.9803 0.9907
-2.0817 0.3864 -0.9800 0.9907
-2.0827 0.3791 -0.9799 0.9907
-2.0838 0.3718 -0.9798 0.9907
-2.0843 0.3681 -0.9797 0.9907
-2.0848 0.3644 -0.9797 0.9907
-2.0853 0.3608 -0.9796 0.9907
-2.0863 0.3535 -0.9795 0.9907
-2.0873 0.3461 -0.9794 0.9907
-2.0882 0.3388 -0.9793 0.9907
-2.0887 0.3351 -0.9792 0.9907
-2.0900 0.3241 -0.9790 0.9907
-2.0905 0.3205 -0.9790 0.9907
-2.0917 0.3095 -0.9788 0.9907
-2.0921 0.3058 -0.9787 0.9907
-2.0929 0.2984 -0.9786 0.9907
-2.0937 0.2911 -0.9785 0.9907
-2.0941 0.2874 -0.9784 0.9907
-2.0948 0.2801 -0.9783 0.9907
-2.0952 0.2764 -0.9782 0.9907
-2.0958 0.2691 -0.9781 0.9907
-2.0962 0.2654 -0.9780 0.9907
-2.0965 0.2617 -0.9780 0.9907
-2.0968 0.2580 -0.9779 0.9907
-2.0977 0.2470 -0.9777 0.9907
-2.0980 0.2433 -0.9777 0.9907
-2.0986 0.2360 -0.9775 0.9907
-2.0989 0.2323 -0.9775 0.9907
-2.0994 0.2249 -0.9773 0.9907
-2.0999 0.2176 -0.9772 0.9907
-2.1001 0.2139 -0.9771 0.9907
-2.1004 0.2102 -0.9771 0.9907
-2.1008 0.2028 -0.9769 0.9907
-2.1012 0.1955 -0.9768 0.9907
-2.1014 0.1918 -0.9768 0.9907
-2.1016 0.1881 -0.9767 0.9907
-2.1018 0.1844 -0.9766 0.9907
-2.1021 0.1771 -0.9765 0.9907
-2.1024 0.1660 -0.9762 0.9907
-2.1025 0.1623 -0.9761 0.9907
-2.1026 0.1586 -0.9760 0.9907
-2.1028 0.1513 -0.9759 0.9908
-2.1029 0.1476 -0.9758 0.9908
-2.1029 0.1439 -0.9757 0.9908
-2.1030 0.1365 -0.9755 0.9908
-2.1031 0.1292 -0.9753 0.9908
-2.1031 0.1255 -0.9752 0.9908
-2.1032 0.1181 -0.9751 0.9908
-2.1032 0.1144 -0.9750 0.9908
-2.1032 0.1108 -0.9749 0.9908
-2.1031 0.0924 -0.9745 0.9908
-2.1031 0.0850 -0.9743 0.9908
-2.1030 0.0776 -0.9741 0.9908
-2.1028 0.0703 -0.9739 0.9908
-2.1028 0.0666 -0.9738 0.9908
-2.1025 0.0556 -0.9736 0.9908
-2.1015 0.0262 -0.9728 0.9908
-2.1012 0.0189 -0.9727 0.9908
-2.1009 0.0115 -0.9725 0.9908
-2.1007 0.0079 -0.9724 0.9908
-2.1005 0.0042 -0.9723 0.9908
-2.1003 0.0005 -0.9722 0.9908
-2.1005 -0.0031 -0.9723 0.9908
-2.1010 -0.0141 -0.9725 0.9908
-2.1015 -0.0252 -0.9728 0.9908
-2.1023 -0.0472 -0.9734 0.9908
-2.1024 -0.0509 -0.9734 0.9908
-2.1025 -0.0545 -0.9735 0.9908
-2.1026 -0.0582 -0.9736 0.9908
-2.1027 -0.0656 -0.9738 0.9908
-2.1029 -0.0729 -0.9740 0.9908
-2.1030 -0.0766 -0.9741 0.9908
-2.1031 -0.0840 -0.9742 0.9908
-2.1031 -0.0876 -0.9743 0.9908
-2.1032 -0.0950 -0.9745 0.9908
-2.1032 -0.0987 -0.9746 0.9908
-2.1032 -0.1024 -0.9747 0.9908
-2.1032 -0.1060 -0.9748 0.9908
-2.1032 -0.1097 -0.9749 0.9908
-2.1032 -0.1134 -0.9750 0.9908
-2.1032 -0.1208 -0.9751 0.9908
-2.1032 -0.1244 -0.9752 0.9908
-2.1031 -0.1318 -0.9754 0.9908
-2.1030 -0.1355 -0.9755 0.9908
-2.1030 -0.1392 -0.9756 0.9908
-2.1029 -0.1429 -0.9757 0.9908
-2.1029 -0.1465 -0.9757 0.9908
-2.1028 -0.1502 -0.9758 0.9908
-2.1027 -0.1539 -0.9759 0.9907
-2.1026 -0.1576 -0.9760 0.9907
-2.1026 -0.1613 -0.9761 0.9907
-2.1024 -0.1687 -0.9763 0.9907
-2.1021 -0.1760 -0.9765 0.9907
-2.1018 -0.1834 -0.9766 0.9907
-2.1017 -0.1871 -0.9767 0.9907
-2.1015 -0.1908 -0.9767 0.9907
-2.1011 -0.1981 -0.9769 0.9907
-2.1006 -0.2055 -0.9770 0.9907
-2.1004 -0.2092 -0.9771 0.9907
-2.1002 -0.2128 -0.9771 0.9907
-2.0997 -0.2202 -0.9773 0.9907
-2.0995 -0.2239 -0.9773 0.9907
-2.0989 -0.2312 -0.9774 0.9907
-2.0987 -0.2349 -0.9775 0.9907
-2.0984 -0.2386 -0.9776 0.9907
-2.0981 -0.2423 -0.9776 0.9907
-2.0975 -0.2496 -0.9778 0.9907
-2.0972 -0.2533 -0.9778 0.9907
-2.0966 -0.2607 -0.9779 0.9907
-2.0959 -0.2680 -0.9781 0.9907
-2.0945 -0.2827 -0.9783 0.9907
-2.0942 -0.2864 -0.9784 0.9907
-2.0938 -0.2901 -0.9784 0.9907
-2.0934 -0.2937 -0.9785 0.9907
-2.0930 -0.2974 -0.9786 0.9907
-2.0927 -0.3011 -0.9786 0.9907
-2.0923 -0.3047 -0.9787 0.9907
-2.0919 -0.3084 -0.9788 0.9907
-2.0914 -0.3121 -0.9788 0.9907
-2.0902 -0.3231 -0.9790 0.9907
-2.0897 -0.3268 -0.9791 0.9907
-2.0888 -0.3341 -0.9792 0.9907
-2.0884 -0.3378 -0.9792 0.9907
-2.0870 -0.3488 -0.9794 0.9907
-2.0865 -0.3524 -0.9795 0.9907
-2.0860 -0.3561 -0.9795 0.9907
-2.0855 -0.3597 -0.9796 0.9907
-2.0850 -0.3634 -0.9797 0.9907
-2.0845 -0.3671 -0.9797 0.9907
-2.0839 -0.3707 -0.9798 0.9907
-2.0834 -0.3744 -0.9798 0.9907
-2.0813 -0.3890 -0.9801 0.9907
-2.0807 -0.3927 -0.9801 0.9907
-2.0790 -0.4036 -0.9803 0.9907
-2.0784 -0.4073 -0.9804 0.9907
-2.0839 -0.4159 -0.9836 0.9907
-2.0874 -0.4204 -0.9856 0.9907
-2.0909 -0.4249 -0.9876 0.9906
-2.0944 -0.4295 -0.9897 0.9906
-2.1015 -0.4386 -0.9937 0.9906
-2.1051 -0.4431 -0.9958 0.9906
-2.1158 -0.4570 -1.0019 0.9905
-2.1193 -0.4616 -1.0040 0.9905
-2.1337 -0.4804 -1.0124 0.9904
-2.1363 -0.4888 -1.0144 0.9904
-2.1385 -0.4971 -1.0163 0.9904
-2.1406 -0.5055 -1.0181 0.9904
-2.1417 -0.5097 -1.0190 0.9903
-2.1427 -0.5139 -1.0200 0.9903
-2.1438 -0.5182 -1.0209 0.9903
-2.1448 -0.5224 -1.0218 0.9903
-2.1459 -0.5266 -1.0228 0.9903
-2.1469 -0.5308 -1.0237 0.9903
-2.1479 -0.5351 -1.0246 0.9903
-2.1490 -0.5393 -1.0256 0.9903
-2.1510 -0.5478 -1.0275 0.9903
-2.1520 -0.5521 -1.0284 0.9903
-2.1541 -0.5606 -1.0303 0.9902
-2.0342 0.5571 -1.0346 0.9906
-2.0326 0.5491 -1.0328 0.9907
-2.0318 0.5450 -1.0319 0.9907
-2.0310 0.5410 -1.0310 0.9907
-2.0302 0.5370 -1.0301 0.9907
-2.0293 0.5330 -1.0292 0.9907
-2.0285 0.5290 -1.0283 0.9907
-2.0228 0.5125 -1.0236 0.9907
-2.0197 0.5079 -1.0216 0.9908
-2.0105 0.4944 -1.0156 0.9908
-2.0074 0.4899 -1.0136 0.9908
-2.0043 0.4855 -1.0116 0.9909
-2.0013 0.4811 -1.0096 0.9909
-1.9890 0.4635 -1.0018 0.9909
-1.9860 0.4591 -0.9999 0.9910
-1.9799 0.4504 -0.9960 0.9910
-1.9738 0.4418 -0.9922 0.9910
-1.9648 0.4290 -0.9865 0.9911
-1.9618 0.4247 -0.9846 0.9911
-1.9587 0.4205 -0.9827 0.9911
-1.9527 0.4121 -0.9790 0.9911
-1.9519 0.4083 -0.9782 0.9912
-1.9531 0.4015 -0.9781 0.9912
-1.9549 0.3912 -0.9779 0.9912
-1.9566 0.3809 -0.9778 0.9912
-1.9571 0.3774 -0.9777 0.9912
-1.9582 0.3706 -0.9776 0.9912
-1.9587 0.3671 -0.9775 0.9912
-1.9593 0.3637 -0.9775 0.9912
-1.9623 0.3430 -0.9772 0.9912
-1.9633 0.3361 -0.9770 0.9912
-1.9642 0.3292 -0.9769 0.9912
-1.9647 0.3258 -0.9769 0.9912
-1.9651 0.3223 -0.9768 0.9912
-1.9656 0.3189 -0.9768 0.9912
-1.9664 0.3120 -0.9766 0.9912
-1.9669 0.3085 -0.9766 0.9912
-1.9677 0.3016 -0.9765 0.9912
-1.9693 0.2878 -0.9762 0.9912
-1.9701 0.2809 -0.9761 0.9912
-1.9704 0.2775 -0.9761 0.9912
-1.9708 0.2740 -0.9760 0.9912
-1.9711 0.2706 -0.9760 0.9912
-1.9722 0.2602 -0.9758 0.9912
-1.9738 0.2429 -0.9755 0.9912
-1.9741 0.2394 -0.9754 0.9912
-1.9750 0.2290 -0.9753 0.9912
-1.9752 0.2256 -0.9752 0.9912
-1.9765 0.2083 -0.9749 0.9912
-1.9770 0.2013 -0.9748 0.9912
-1.9772 0.1979 -0.9747 0.9912
-1.9776 0.1909 -0.9746 0.9912
-1.9781 0.1840 -0.9745 0.9912
-1.9784 0.1771 -0.9744 0.9912
-1.9786 0.1736 -0.9743 0.9912
-1.9788 0.1702 -0.9742 0.9912
-1.9791 0.1632 -0.9741 0.9912
-1.9793 0.1598 -0.9740 0.9912
-1.9794 0.1563 -0.9740 0.9912
-1.9796 0.1528 -0.9739 0.9912
-1.9798 0.1459 -0.9738 0.9912
-1.9800 0.1424 -0.9737 0.9912
-1.9802 0.1355 -0.9736 0.9912
-1.9803 0.1320 -0.9735 0.9912
-1.9804 0.1286 -0.9735 0.9912
-1.9805 0.1251 -0.9734 0.9912
-1.9807 0.1182 -0.9733 0.9912
-1.9807 0.1147 -0.9732 0.9912
-1.9808 0.1113 -0.9732 0.9912
-1.9809 0.1078 -0.9731 0.9912
-1.9810 0.0974 -0.9729 0.9912
-1.9811 0.0939 -0.9729 0.9912
-1.9811 0.0835 -0.9727 0.9912
-1.9812 0.0766 -0.9725 0.9912
-1.9811 0.0731 -0.9724 0.9912
-1.9811 0.0697 -0.9724 0.9912
-1.9808 0.0558 -0.9720 0.9912
-1.9807 0.0524 -0.9719 0.9912
-1.9807 0.0489 -0.9719 0.9912
-1.9806 0.0454 -0.9718 0.9912
-1.9805 0.0420 -0.9717 0.9912
-1.9803 0.0351 -0.9715 0.9912
-1.9799 0.0247 -0.9713 0.9912
-1.9798 0.0212 -0.9712 0.9912
-1.9788 0.0005 -0.9707 0.9912
-1.9790 -0.0030 -0.9707 0.9912
-1.9793 -0.0099 -0.9709 0.9912
-1.9794 -0.0133 -0.9710 0.9912
-1.9796 -0.0168 -0.9711 0.9912
-1.9797 -0.0202 -0.9712 0.9912
-1.9800 -0.0272 -0.9713 0.9912
-1.9801 -0.0306 -0.9714 0.9912
-1.9802 -0.0341 -0.9715 0.9912
-1.9803 -0.0375 -0.9716 0.9912
-1.9804 -0.0410 -0.9717 0.9912
-1.9808 -0.0548 -0.9720 0.9912
-1.9809 -0.0618 -0.9722 0.9912
-1.9810 -0.0652 -0.9723 0.9912
-1.9811 -0.0756 -0.9725 0.9912
-1.9812 -0.0791 -0.9726 0.9912
-1.9811 -0.0826 -0.9726 0.9912
-1.9811 -0.0895 -0.9728 0.9912
-1.9810 -0.0999 -0.9730 0.9912
-1.9810 -0.1033 -0.9730 0.9912
-1.9809 -0.1068 -0.9731 0.9912
-1.9808 -0.1103 -0.9732 0.9912
-1.9806 -0.1207 -0.9733 0.9912
-1.9805 -0.1241 -0.9734 0.9912
-1.9804 -0.1276 -0.9735 0.9912
-1.9802 -0.1345 -0.9736 0.9912
-1.9801 -0.1380 -0.9737 0.9912
-1.9800 -0.1415 -0.9737 0.9912
-1.9799 -0.1449 -0.9738 0.9912
-1.9798 -0.1484 -0.9738 0.9912
-1.9796 -0.1519 -0.9739 0.9912
-1.9792 -0.1622 -0.9741 0.9912
-1.9788 -0.1692 -0.9742 0.9912
-1.9787 -0.1726 -0.9743 0.9912
-1.9785 -0.1761 -0.9743 0.9912
-1.9783 -0.1796 -0.9744 0.9912
-1.9781 -0.1830 -0.9745 0.9912
-1.9779 -0.1865 -0.9745 0.9912
-1.9775 -0.1934 -0.9746 0.9912
-1.9773 -0.1969 -0.9747 0.9912
-1.9768 -0.2038 -0.9748 0.9912
-1.9761 -0.2142 -0.9750 0.9912
-1.9750 -0.2281 -0.9752 0.9912
-1.9748 -0.2315 -0.9753 0.9912
-1.9726 -0.2557 -0.9757 0.9912
-1.9719 -0.2627 -0.9758 0.9912
-1.9709 -0.2730 -0.9760 0.9912
-1.9705 -0.2765 -0.9761 0.9912
-1.9702 -0.2799 -0.9761 0.9912
-1.9690 -0.2903 -0.9763 0.9912
-1.9686 -0.2938 -0.9763 0.9912
-1.9682 -0.2972 -0.9764 0.9912
-1.9678 -0.3007 -0.9765 0.9912
-1.9674 -0.3041 -0.9765 0.9912
-1.9670 -0.3076 -0.9766 0.9912
-1.9666 -0.3110 -0.9766 0.9912
-1.9657 -0.3179 -0.9767 0.9912
-1.9652 -0.3214 -0.9768 0.9912
-1.9629 -0.3386 -0.9771 0.9912
-1.9619 -0.3455 -0.9772 0.9912
-1.9615 -0.3489 -0.9772 0.9912
-1.9610 -0.3524 -0.9773 0.9912
-1.9599 -0.3593 -0.9774 0.9912
-1.9584 -0.3696 -0.9776 0.9912
-1.9567 -0.3799 -0.9777 0.9912
-1.9556 -0.3868 -0.9778 0.9912
-1.9550 -0.3902 -0.9779 0.9912
-1.9533 -0.4005 -0.9781 0.9912
-1.9527 -0.4039 -0.9781 0.9912
-1.9521 -0.4074 -0.9782 0.9912
-1.9519 -0.4109 -0.9784 0.9912
-1.9609 -0.4235 -0.9840 0.9911
-1.9669 -0.4320 -0.9878 0.9911
-1.9730 -0.4406 -0.9916 0.9910
-1.9851 -0.4579 -0.9993 0.9910
-1.9882 -0.4622 -1.0012 0.9909
-1.9943 -0.4710 -1.0051 0.9909
-1.9973 -0.4754 -1.0071 0.9909
-2.0004 -0.4798 -1.0091 0.9909
-2.0034 -0.4842 -1.0110 0.9909
-2.0065 -0.4887 -1.0130 0.9908
-2.0127 -0.4976 -1.0170 0.9908
-2.0157 -0.5021 -1.0190 0.9908
-2.0188 -0.5066 -1.0210 0.9908
-2.0219 -0.5112 -1.0230 0.9908
-2.0266 -0.5199 -1.0263 0.9907
-2.0283 -0.5279 -1.0280 0.9907
-2.0291 -0.5319 -1.0289 0.9907
-2.0299 -0.5359 -1.0298 0.9907
-2.0307 -0.5399 -1.0307 0.9907
-2.0316 -0.5439 -1.0316 0.9907
-2.0324 -0.5479 -1.0325 0.9907
-2.0340 -0.5560 -1.0343 0.9906
-2.7581 0.8074 -1.4909 0.9871
-2.7411 0.7972 -1.4810 0.9872
-1.9234 0.5521 -1.0381 0.9910
-1.9080 0.5262 -1.0268 0.9911
-1.9054 0.5219 -1.0249 0.9911
-1.9028 0.5176 -1.0230 0.9912
-1.9000 0.5133 -1.0210 0.9912
-1.8942 0.5046 -1.0170 0.9912
-1.8913 0.5003 -1.0149 0.9912
-1.8884 0.4960 -1.0129 0.9912
-1.8827 0.4875 -1.0089 0.9913
-1.8711 0.4706 -1.0009 0.9913
-1.8625 0.4580 -0.9950 0.9914
-1.8596 0.4539 -0.9931 0.9914
-1.8568 0.4498 -0.9911 0.9914
-1.8539 0.4456 -0.9892 0.9914
-1.8454 0.4334 -0.9834 0.9915
-1.8437 0.4296 -0.9821 0.9915
-1.8431 0.4261 -0.9814 0.9915
-1.8425 0.4225 -0.9807 0.9915
-1.8420 0.4190 -0.9800 0.9915
-1.8414 0.4155 -0.9793 0.9915
-1.8409 0.4120 -0.9787 0.9915
-1.8416 0.4088 -0.9786 0.9915
-1.8422 0.4056 -0.9786 0.9915
-1.8440 0.3959 -0.9784 0.9915
-1.8446 0.3926 -0.9784 0.9915
-1.8452 0.3894 -0.9783 0.9915
-1.8464 0.3829 -0.9783 0.9915
-1.8470 0.3797 -0.9782 0.9915
-1.8476 0.3764 -0.9782 0.9915
-1.8481 0.3732 -0.9781 0.9915
-1.8487 0.3699 -0.9781 0.9915
-1.8503 0.3602 -0.9779 0.9915
-1.8512 0.3537 -0.9777 0.9915
-1.8517 0.3504 -0.9777 0.9915
-1.8521 0.3471 -0.9776 0.9915
-1.8526 0.3439 -0.9775 0.9915
-1.8539 0.3341 -0.9773 0.9915
-1.8548 0.3276 -0.9771 0.9915
-1.8552 0.3243 -0.9770 0.9915
-1.8564 0.3145 -0.9768 0.9916
-1.8568 0.3112 -0.9767 0.9916
-1.8576 0.3047 -0.9766 0.9916
-1.8584 0.2982 -0.9764 0.9916
-1.8588 0.2949 -0.9763 0.9916
-1.8602 0.2818 -0.9760 0.9916
-1.8605 0.2786 -0.9760 0.9916
-1.8616 0.2688 -0.9757 0.9916
-1.8619 0.2655 -0.9757 0.9916
-1.8625 0.2590 -0.9755 0.9916
-1.8654 0.2262 -0.9748 0.9916
-1.8664 0.2131 -0.9745 0.9916
-1.8668 0.2066 -0.9744 0.9916
-1.8673 0.2000 -0.9742 0.9916
-1.8679 0.1902 -0.9740 0.9916
-1.8681 0.1870 -0.9740 0.9916
-1.8683 0.1837 -0.9739 0.9916
-1.8686 0.1771 -0.9738 0.9916
-1.8690 0.1706 -0.9736 0.9916
-1.8692 0.1673 -0.9736 0.9916
-1.8698 0.1542 -0.9733 0.9916
-1.8699 0.1509 -0.9732 0.9916
-1.8700 0.1477 -0.9732 0.9916
-1.8702 0.1444 -0.9731 0.9916
-1.8703 0.1411 -0.9730 0.9916
-1.8704 0.1378 -0.9730 0.9916
-1.8705 0.1346 -0.9729 0.9916
-1.8707 0.1280 -0.9728 0.9916
-1.8709 0.1215 -0.9726 0.9916
-1.8711 0.1149 -0.9725 0.9916
-1.8711 0.1116 -0.9724 0.9916
-1.8713 0.1051 -0.9723 0.9916
-1.8713 0.1018 -0.9722 0.9916
-1.8714 0.0986 -0.9722 0.9916
-1.8715 0.0920 -0.9721 0.9916
-1.8715 0.0887 -0.9720 0.9916
-1.8716 0.0822 -0.9719 0.9916
-1.8716 0.0724 -0.9717 0.9916
-1.8716 0.0691 -0.9716 0.9916
-1.8716 0.0658 -0.9716 0.9916
-1.8716 0.0626 -0.9715 0.9916
-1.8716 0.0528 -0.9713 0.9916
-1.8716 0.0495 -0.9713 0.9916
-1.8715 0.0462 -0.9712 0.9916
-1.8715 0.0429 -0.9711 0.9916
-1.8715 0.0397 -0.9711 0.9916
-1.8714 0.0331 -0.9710 0.9916
-1.8712 0.0233 -0.9708 0.9916
-1.8711 0.0201 -0.9707 0.9916
-1.8710 0.0168 -0.9707 0.9916
-1.8708 0.0103 -0.9706 0.9916
-1.8706 -0.0028 -0.9704 0.9916
-1.8707 -0.0061 -0.9705 0.9916
-1.8709 -0.0126 -0.9706 0.9916
-1.8711 -0.0191 -0.9707 0.9916
-1.8711 -0.0224 -0.9708 0.9916
-1.8713 -0.0289 -0.9709 0.9916
-1.8714 -0.0355 -0.9710 0.9916
-1.8714 -0.0387 -0.9711 0.9916
-1.8715 -0.0420 -0.9711 0.9916
-1.8715 -0.0453 -0.9712 0.9916
-1.8716 -0.0486 -0.9712 0.9916
-1.8716 -0.0518 -0.9713 0.9916
-1.8716 -0.0616 -0.9715 0.9916
-1.8716 -0.0714 -0.9717 0.9916
-1.8716 -0.0813 -0.9719 0.9916
-1.8715 -0.0911 -0.9720 0.9916
-1.8715 -0.0944 -0.9721 0.9916
-1.8714 -0.0976 -0.9722 0.9916
-1.8712 -0.1107 -0.9724 0.9916
-1.8711 -0.1140 -0.9725 0.9916
-1.8710 -0.1173 -0.9725 0.9916
-1.8703 -0.1402 -0.9730 0.9916
-1.8701 -0.1467 -0.9731 0.9916
-1.8699 -0.1500 -0.9732 0.9916
-1.8698 -0.1533 -0.9733 0.9916
-1.8697 -0.1566 -0.9733 0.9916
-1.8695 -0.1598 -0.9734 0.9916
-1.8694 -0.1631 -0.9735 0.9916
-1.8690 -0.1697 -0.9736 0.9916
-1.8689 -0.1729 -0.9737 0.9916
-1.8685 -0.1795 -0.9738 0.9916
-1.8683 -0.1828 -0.9739 0.9916
-1.8681 -0.1860 -0.9739 0.9916
-1.8675 -0.1958 -0.9741 0.9916
-1.8673 -0.1991 -0.9742 0.9916
-1.8671 -0.2024 -0.9743 0.9916
-1.8669 -0.2057 -0.9744 0.9916
-1.8667 -0.2089 -0.9744 0.9916
-1.8662 -0.2155 -0.9746 0.9916
-1.8654 -0.2253 -0.9748 0.9916
-1.8649 -0.2319 -0.9749 0.9916
-1.8646 -0.2351 -0.9750 0.9916
-1.8641 -0.2417 -0.9751 0.9916
-1.8638 -0.2449 -0.9752 0.9916
-1.8632 -0.2515 -0.9754 0.9916
-1.8626 -0.2580 -0.9755 0.9916
-1.8623 -0.2613 -0.9756 0.9916
-1.8613 -0.2711 -0.9758 0.9916
-1.8606 -0.2776 -0.9759 0.9916
-1.8599 -0.2842 -0.9761 0.9916
-1.8589 -0.2940 -0.9763 0.9916
-1.8585 -0.2973 -0.9764 0.9916
-1.8581 -0.3005 -0.9765 0.9916
-1.8577 -0.3038 -0.9766 0.9916
-1.8573 -0.3071 -0.9766 0.9916
-1.8566 -0.3136 -0.9768 0.9916
-1.8557 -0.3201 -0.9769 0.9916
-1.8549 -0.3266 -0.9771 0.9915
-1.8545 -0.3299 -0.9772 0.9915
-1.8541 -0.3332 -0.9772 0.9915
-1.8532 -0.3397 -0.9774 0.9915
-1.8527 -0.3430 -0.9775 0.9915
-1.8514 -0.3527 -0.9777 0.9915
-1.8509 -0.3560 -0.9778 0.9915
-1.8504 -0.3593 -0.9779 0.9915
-1.8489 -0.3690 -0.9781 0.9915
-1.8483 -0.3723 -0.9781 0.9915
-1.8477 -0.3755 -0.9782 0.9915
-1.8471 -0.3787 -0.9782 0.9915
-1.8466 -0.3820 -0.9782 0.9915
-1.8454 -0.3885 -0.9783 0.9915
-1.8436 -0.3982 -0.9785 0.9915
-1.8430 -0.4014 -0.9785 0.9915
-1.8418 -0.4180 -0.9798 0.9915
-1.8424 -0.4215 -0.9805 0.9915
-1.8435 -0.4286 -0.9819 0.9915
-1.8445 -0.4322 -0.9828 0.9915
-1.8474 -0.4363 -0.9848 0.9915
-1.8503 -0.4404 -0.9867 0.9915
-1.8560 -0.4486 -0.9906 0.9914
-1.8588 -0.4527 -0.9925 0.9914
-1.8617 -0.4569 -0.9945 0.9914
-1.8674 -0.4652 -0.9984 0.9914
-1.8761 -0.4778 -1.0043 0.9913
-1.8818 -0.4863 -1.0083 0.9913
-1.8934 -0.5034 -1.0164 0.9912
-1.8963 -0.5077 -1.0184 0.9912
-1.8992 -0.5120 -1.0205 0.9912
-1.9021 -0.5164 -1.0225 0.9912
-1.9099 -0.5292 -1.0282 0.9911
-1.9126 -0.5336 -1.0301 0.9911
-1.9152 -0.5379 -1.0320 0.9911
-1.9204 -0.5466 -1.0359 0.9910
-1.9231 -0.5510 -1.0378 0.9910
-2.7364 -0.7944 -1.4782 0.9872
-2.7533 -0.8045 -1.4881 0.9872
-2.7704 -0.8148 -1.4981 0.9871
-1.8022 0.5585 -1.0334 0.9914
-1.7998 0.5543 -1.0314 0.9914
-1.7925 0.5418 -1.0256 0.9915
-1.7901 0.5376 -1.0237 0.9915
-1.7877 0.5335 -1.0218 0.9915
-1.7805 0.5212 -1.0161 0.9916
-1.7756 0.5131 -1.0123 0.9916
-1.7660 0.4969 -1.0048 0.9917
-1.7612 0.4890 -1.0011 0.9917
-1.7587 0.4850 -0.9992 0.9917
-1.7492 0.4594 -0.9905 0.9918
-1.7488 0.4561 -0.9898 0.9918
-1.7484 0.4527 -0.9892 0.9918
-1.7475 0.4460 -0.9878 0.9918
-1.7471 0.4426 -0.9871 0.9918
-1.7467 0.4393 -0.9865 0.9918
-1.7463 0.4359 -0.9858 0.9918
-1.7454 0.4292 -0.9844 0.9918
-1.7440 0.4192 -0.9824 0.9919
-1.7436 0.4159 -0.9818 0.9919
-1.7445 0.4097 -0.9815 0.9919
-1.7452 0.4066 -0.9814 0.9919
-1.7476 0.3944 -0.9813 0.9919
-1.7500 0.3821 -0.9811 0.9919
-1.7506 0.3790 -0.9810 0.9919
-1.7518 0.3729 -0.9809 0.9919
-1.7529 0.3667 -0.9809 0.9919
-1.7535 0.3636 -0.9808 0.9919
-1.7551 0.3544 -0.9807 0.9919
-1.7557 0.3513 -0.9807 0.9919
-1.7562 0.3482 -0.9806 0.9919
-1.7567 0.3452 -0.9806 0.9919
-1.7583 0.3359 -0.9804 0.9919
-1.7593 0.3297 -0.9804 0.9919
-1.7598 0.3267 -0.9803 0.9919
-1.7608 0.3205 -0.9802 0.9919
-1.7613 0.3174 -0.9802 0.9919
-1.7641 0.2989 -0.9800 0.9919
-1.7645 0.2958 -0.9799 0.9919
-1.7658 0.2865 -0.9798 0.9919
-1.7663 0.2834 -0.9798 0.9919
-1.7667 0.2803 -0.9797 0.9919
-1.7671 0.2772 -0.9797 0.9919
-1.7675 0.2741 -0.9796 0.9919
-1.7679 0.2710 -0.9796 0.9919
-1.7683 0.2679 -0.9795 0.9919
-1.7686 0.2648 -0.9795 0.9919
-1.7689 0.2617 -0.9794 0.9919
-1.7696 0.2555 -0.9793 0.9919
-1.7708 0.2431 -0.9790 0.9919
-1.7711 0.2399 -0.9789 0.9919
-1.7714 0.2368 -0.9788 0.9919
-1.7720 0.2306 -0.9787 0.9919
-1.7722 0.2275 -0.9786 0.9919
-1.7728 0.2213 -0.9785 0.9919
-1.7730 0.2182 -0.9784 0.9919
-1.7735 0.2120 -0.9783 0.9919
-1.7740 0.2057 -0.9782 0.9919
-1.7743 0.2026 -0.9781 0.9919
-1.7745 0.1995 -0.9780 0.9919
-1.7751 0.1902 -0.9778 0.9919
-1.7758 0.1808 -0.9776 0.9919
-1.7759 0.1777 -0.9776 0.9919
-1.7761 0.1746 -0.9775 0.9919
-1.7763 0.1715 -0.9774 0.9919
-1.7767 0.1653 -0.9773 0.9919
-1.7768 0.1622 -0.9772 0.9919
-1.7770 0.1591 -0.9772 0.9919
-1.7772 0.1559 -0.9771 0.9919
-1.7773 0.1528 -0.9770 0.9919
-1.7776 0.1466 -0.9769 0.9919
-1.7777 0.1435 -0.9768 0.9919
-1.7779 0.1404 -0.9768 0.9919
-1.7781 0.1342 -0.9767 0.9919
-1.7785 0.1248 -0.9765 0.9919
-1.7786 0.1217 -0.9764 0.9919
-1.7787 0.1186 -0.9763 0.9919
-1.7788 0.1124 -0.9762 0.9919
-1.7789 0.1093 -0.9762 0.9919
-1.7792 0.0968 -0.9759 0.9919
-1.7793 0.0937 -0.9759 0.9919
-1.7793 0.0906 -0.9758 0.9919
-1.7794 0.0875 -0.9757 0.9919
-1.7794 0.0844 -0.9757 0.9919
-1.7794 0.0813 -0.9756 0.9919
-1.7795 0.0781 -0.9756 0.9919
-1.7795 0.0719 -0.9754 0.9919
-1.7796 0.0595 -0.9752 0.9919
-1.7795 0.0564 -0.9752 0.9919
-1.7795 0.0533 -0.9751 0.9919
-1.7795 0.0470 -0.9750 0.9919
-1.7795 0.0408 -0.9749 0.9919
-1.7794 0.0377 -0.9748 0.9919
-1.7793 0.0315 -0.9747 0.9919
-1.7793 0.0284 -0.9746 0.9919
-1.7792 0.0253 -0.9746 0.9919
-1.7792 0.0222 -0.9745 0.9919
-1.7791 0.0191 -0.9745 0.9919
-1.7790 0.0160 -0.9744 0.9919
-1.7790 0.0129 -0.9744 0.9919
-1.7789 0.0098 -0.9743 0.9919
-1.7788 0.0067 -0.9743 0.9919
-1.7786 0.0004 -0.9742 0.9919
-1.7789 -0.0120 -0.9744 0.9919
-1.7791 -0.0182 -0.9745 0.9919
-1.7794 -0.0337 -0.9747 0.9919
-1.7794 -0.0399 -0.9749 0.9919
-1.7795 -0.0462 -0.9750 0.9919
-1.7795 -0.0493 -0.9750 0.9919
-1.7795 -0.0555 -0.9751 0.9919
-1.7795 -0.0679 -0.9754 0.9919
-1.7795 -0.0710 -0.9754 0.9919
-1.7795 -0.0742 -0.9755 0.9919
-1.7795 -0.0773 -0.9755 0.9919
-1.7794 -0.0804 -0.9756 0.9919
-1.7794 -0.0866 -0.9757 0.9919
-1.7793 -0.0928 -0.9758 0.9919
-1.7790 -0.1053 -0.9761 0.9919
-1.7789 -0.1084 -0.9761 0.9919
-1.7788 -0.1146 -0.9763 0.9919
-1.7787 -0.1177 -0.9763 0.9919
-1.7785 -0.1239 -0.9765 0.9919
-1.7783 -0.1302 -0.9766 0.9919
-1.7780 -0.1364 -0.9767 0.9919
-1.7772 -0.1551 -0.9771 0.9919
-1.7771 -0.1582 -0.9771 0.9919
-1.7767 -0.1644 -0.9773 0.9919
-1.7764 -0.1706 -0.9774 0.9919
-1.7760 -0.1769 -0.9775 0.9919
-1.7758 -0.1800 -0.9776 0.9919
-1.7754 -0.1862 -0.9777 0.9919
-1.7746 -0.1986 -0.9780 0.9919
-1.7741 -0.2049 -0.9781 0.9919
-1.7739 -0.2080 -0.9782 0.9919
-1.7734 -0.2142 -0.9783 0.9919
-1.7729 -0.2204 -0.9785 0.9919
-1.7726 -0.2235 -0.9785 0.9919
-1.7720 -0.2297 -0.9787 0.9919
-1.7715 -0.2360 -0.9788 0.9919
-1.7706 -0.2453 -0.9790 0.9919
-1.7703 -0.2484 -0.9791 0.9919
-1.7700 -0.2515 -0.9792 0.9919
-1.7690 -0.2608 -0.9794 0.9919
-1.7687 -0.2639 -0.9795 0.9919
-1.7684 -0.2670 -0.9795 0.9919
-1.7680 -0.2701 -0.9796 0.9919
-1.7664 -0.2825 -0.9797 0.9919
-1.7660 -0.2856 -0.9798 0.9919
-1.7651 -0.2918 -0.9799 0.9919
-1.7646 -0.2949 -0.9799 0.9919
-1.7642 -0.2980 -0.9799 0.9919
-1.7637 -0.3011 -0.9800 0.9919
-1.7633 -0.3042 -0.9800 0.9919
-1.7628 -0.3073 -0.9801 0.9919
-1.7624 -0.3103 -0.9801 0.9919
-1.7619 -0.3134 -0.9801 0.9919
-1.7609 -0.3196 -0.9802 0.9919
-1.7604 -0.3227 -0.9803 0.9919
-1.7595 -0.3289 -0.9803 0.9919
-1.7574 -0.3412 -0.9805 0.9919
-1.7564 -0.3474 -0.9806 0.9919
-1.7558 -0.3504 -0.9806 0.9919
-1.7553 -0.3535 -0.9807 0.9919
-1.7536 -0.3628 -0.9808 0.9919
-1.7525 -0.3689 -0.9809 0.9919
-1.7514 -0.3751 -0.9810 0.9919
-1.7502 -0.3812 -0.9811 0.9919
-1.7478 -0.3935 -0.9812 0.9919
-1.7466 -0.3996 -0.9813 0.9919
-1.7453 -0.4058 -0.9814 0.9919
-1.7447 -0.4088 -0.9815 0.9919
-1.7444 -0.4216 -0.9829 0.9918
-1.7448 -0.4249 -0.9836 0.9918
-1.7457 -0.4316 -0.9849 0.9918
-1.7461 -0.4350 -0.9856 0.9918
-1.7466 -0.4383 -0.9863 0.9918
-1.7482 -0.4517 -0.9890 0.9918
-1.7491 -0.4585 -0.9903 0.9918
-1.7498 -0.4652 -0.9917 0.9918
-1.7502 -0.4686 -0.9924 0.9918
-1.7508 -0.4720 -0.9932 0.9918
-1.7533 -0.4760 -0.9950 0.9917
-1.7557 -0.4799 -0.9969 0.9917
-1.7581 -0.4839 -0.9987 0.9917
-1.7605 -0.4878 -1.0006 0.9917
-1.7653 -0.4958 -1.0043 0.9917
-1.7677 -0.4998 -1.0061 0.9917
-1.7749 -0.5119 -1.0118 0.9916
-1.7822 -0.5241 -1.0174 0.9916
-1.7846 -0.5282 -1.0193 0.9915
-1.7894 -0.5365 -1.0232 0.9915
-1.7943 -0.5447 -1.0270 0.9915
-1.7967 -0.5489 -1.0290 0.9915
-2.6040 -0.8155 -1.4945 0.9876
-2.6474 -0.8443 -1.5219 0.9874
-2.5197 0.8439 -1.5342 0.9878
-1.6835 0.5541 -1.0233 0.9918
-1.6815 0.5502 -1.0215 0.9919
-1.6796 0.5463 -1.0197 0.9919
-1.6776 0.5424 -1.0179 0.9919
-1.6756 0.5385 -1.0161 0.9919
-1.6736 0.5346 -1.0144 0.9919
-1.6716 0.5308 -1.0126 0.9919
-1.6696 0.5270 -1.0108 0.9919
-1.6676 0.5231 -1.0091 0.9920
-1.6656 0.5193 -1.0073 0.9920
-1.6636 0.5155 -1.0055 0.9920
-1.6616 0.5117 -1.0038 0.9920
-1.6607 0.5082 -1.0027 0.9920
-1.6602 0.5018 -1.0014 0.9920
-1.6598 0.4953 -1.0001 0.9920
-1.6584 0.4761 -0.9961 0.9921
-1.6582 0.4729 -0.9955 0.9921
-1.6579 0.4697 -0.9949 0.9921
-1.6576 0.4665 -0.9942 0.9921
-1.6571 0.4601 -0.9929 0.9921
-1.6562 0.4505 -0.9910 0.9921
-1.6559 0.4473 -0.9903 0.9921
-1.6557 0.4441 -0.9897 0.9921
-1.6550 0.4378 -0.9884 0.9921
-1.6547 0.4346 -0.9878 0.9921
-1.6544 0.4314 -0.9871 0.9921
-1.6541 0.4283 -0.9865 0.9921
-1.6534 0.4220 -0.9852 0.9921
-1.6532 0.4158 -0.9842 0.9922
-1.6539 0.4129 -0.9842 0.9922
-1.6564 0.4012 -0.9840 0.9922
-1.6577 0.3954 -0.9839 0.9922
-1.6583 0.3925 -0.9839 0.9922
-1.6613 0.3779 -0.9836 0.9922
-1.6619 0.3750 -0.9836 0.9922
-1.6625 0.3721 -0.9836 0.9922
-1.6630 0.3692 -0.9835 0.9922
-1.6642 0.3633 -0.9834 0.9922
-1.6647 0.3604 -0.9834 0.9922
-1.6658 0.3546 -0.9833 0.9922
-1.6675 0.3458 -0.9832 0.9922
-1.6690 0.3370 -0.9831 0.9922
-1.6696 0.3341 -0.9830 0.9922
-1.6706 0.3282 -0.9830 0.9922
-1.6721 0.3194 -0.9828 0.9922
-1.6726 0.3165 -0.9828 0.9922
-1.6749 0.3018 -0.9826 0.9922
-1.6754 0.2989 -0.9826 0.9922
-1.6767 0.2901 -0.9824 0.9922
-1.6776 0.2842 -0.9824 0.9922
-1.6780 0.2813 -0.9823 0.9922
-1.6785 0.2783 -0.9823 0.9922
-1.6789 0.2754 -0.9823 0.9922
-1.6797 0.2695 -0.9822 0.9922
-1.6801 0.2666 -0.9821 0.9922
-1.6805 0.2636 -0.9821 0.9922
-1.6809 0.2607 -0.9821 0.9922
-1.6821 0.2518 -0.9820 0.9922
-1.6824 0.2489 -0.9819 0.9922
-1.6832 0.2430 -0.9819 0.9922
-1.6839 0.2371 -0.9818 0.9922
-1.6842 0.2342 -0.9817 0.9922
-1.6849 0.2283 -0.9817 0.9922
-1.6859 0.2194 -0.9816 0.9922
-1.6869 0.2106 -0.9815 0.9922
-1.6872 0.2076 -0.9814 0.9922
-1.6875 0.2047 -0.9814 0.9922
-1.6883 0.1958 -0.9813 0.9922
-1.6886 0.1928 -0.9813 0.9922
-1.6889 0.1899 -0.9812 0.9922
-1.6892 0.1869 -0.9812 0.9922
-1.6894 0.1840 -0.9812 0.9922
-1.6899 0.1781 -0.9811 0.9922
-1.6901 0.1751 -0.9810 0.9922
-1.6903 0.1721 -0.9809 0.9922
-1.6905 0.1692 -0.9809 0.9922
-1.6907 0.1662 -0.9808 0.9922
-1.6909 0.1633 -0.9808 0.9922
-1.6910 0.1603 -0.9807 0.9922
-1.6914 0.1544 -0.9806 0.9922
-1.6917 0.1484 -0.9805 0.9922
-1.6918 0.1455 -0.9804 0.9922
-1.6920 0.1425 -0.9803 0.9922
-1.6923 0.1366 -0.9802 0.9922
-1.6924 0.1336 -0.9801 0.9922
-1.6926 0.1277 -0.9800 0.9922
-1.6930 0.1188 -0.9798 0.9922
-1.6932 0.1129 -0.9797 0.9922
-1.6934 0.1070 -0.9796 0.9922
-1.6935 0.1011 -0.9795 0.9922
-1.6936 0.0981 -0.9794 0.9922
-1.6938 0.0892 -0.9793 0.9922
-1.6938 0.0862 -0.9792 0.9922
-1.6939 0.0833 -0.9792 0.9922
-1.6939 0.0803 -0.9791 0.9922
-1.6940 0.0774 -0.9790 0.9922
-1.6940 0.0714 -0.9789 0.9922
-1.6941 0.0655 -0.9788 0.9922
-1.6941 0.0625 -0.9788 0.9922
-1.6941 0.0566 -0.9786 0.9922
-1.6941 0.0537 -0.9786 0.9922
-1.6941 0.0507 -0.9785 0.9922
-1.6941 0.0389 -0.9783 0.9922
-1.6940 0.0300 -0.9782 0.9922
-1.6939 0.0241 -0.9781 0.9922
-1.6938 0.0211 -0.9780 0.9922
-1.6937 0.0152 -0.9779 0.9922
-1.6936 0.0122 -0.9778 0.9922
-1.6936 0.0093 -0.9778 0.9922
-1.6934 0.0034 -0.9777 0.9922
-1.6934 -0.0025 -0.9777 0.9922
-1.6935 -0.0084 -0.9778 0.9922
-1.6937 -0.0173 -0.9779 0.9922
-1.6939 -0.0262 -0.9781 0.9922
-1.6939 -0.0292 -0.9781 0.9922
-1.6940 -0.0351 -0.9783 0.9922
-1.6941 -0.0499 -0.9785 0.9922
-1.6941 -0.0528 -0.9786 0.9922
-1.6941 -0.0558 -0.9786 0.9922
-1.6941 -0.0587 -0.9787 0.9922
-1.6941 -0.0706 -0.9789 0.9922
-1.6940 -0.0736 -0.9790 0.9922
-1.6940 -0.0765 -0.9790 0.9922
-1.6940 -0.0795 -0.9791 0.9922
-1.6939 -0.0854 -0.9792 0.9922
-1.6937 -0.0913 -0.9793 0.9922
-1.6937 -0.0943 -0.9794 0.9922
-1.6935 -0.1002 -0.9795 0.9922
-1.6934 -0.1061 -0.9796 0.9922
-1.6930 -0.1180 -0.9798 0.9922
-1.6928 -0.1239 -0.9800 0.9922
-1.6923 -0.1358 -0.9802 0.9922
-1.6922 -0.1387 -0.9803 0.9922
-1.6920 -0.1417 -0.9803 0.9922
-1.6919 -0.1446 -0.9804 0.9922
-1.6917 -0.1476 -0.9804 0.9922
-1.6916 -0.1506 -0.9805 0.9922
-1.6914 -0.1535 -0.9806 0.9922
-1.6911 -0.1595 -0.9807 0.9922
-1.6909 -0.1624 -0.9807 0.9922
-1.6906 -0.1683 -0.9809 0.9922
-1.6902 -0.1743 -0.9810 0.9922
-1.6900 -0.1772 -0.9811 0.9922
-1.6895 -0.1831 -0.9812 0.9922
-1.6893 -0.1861 -0.9812 0.9922
-1.6890 -0.1891 -0.9812 0.9922
-1.6884 -0.1950 -0.9813 0.9922
-1.6881 -0.1979 -0.9813 0.9922
-1.6870 -0.2097 -0.9815 0.9922
-1.6866 -0.2127 -0.9815 0.9922
-1.6863 -0.2156 -0.9815 0.9922
-1.6840 -0.2363 -0.9818 0.9922
-1.6825 -0.2481 -0.9819 0.9922
-1.6822 -0.2510 -0.9820 0.9922
-1.6810 -0.2598 -0.9821 0.9922
-1.6806 -0.2628 -0.9821 0.9922
-1.6798 -0.2687 -0.9822 0.9922
-1.6794 -0.2716 -0.9822 0.9922
-1.6773 -0.2863 -0.9824 0.9922
-1.6769 -0.2893 -0.9824 0.9922
-1.6764 -0.2922 -0.9825 0.9922
-1.6760 -0.2951 -0.9825 0.9922
-1.6751 -0.3010 -0.9826 0.9922
-1.6746 -0.3039 -0.9826 0.9922
-1.6737 -0.3098 -0.9827 0.9922
-1.6727 -0.3157 -0.9828 0.9922
-1.6722 -0.3186 -0.9828 0.9922
-1.6712 -0.3245 -0.9829 0.9922
-1.6707 -0.3274 -0.9829 0.9922
-1.6702 -0.3303 -0.9830 0.9922
-1.6697 -0.3333 -0.9830 0.9922
-1.6676 -0.3450 -0.9832 0.9922
-1.6671 -0.3479 -0.9832 0.9922
-1.6660 -0.3537 -0.9833 0.9922
-1.6649 -0.3596 -0.9834 0.9922
-1.6643 -0.3625 -0.9834 0.9922
-1.6632 -0.3683 -0.9835 0.9922
-1.6609 -0.3800 -0.9837 0.9922
-1.6597 -0.3858 -0.9838 0.9922
-1.6585 -0.3917 -0.9839 0.9922
-1.6578 -0.3946 -0.9839 0.9922
-1.6572 -0.3975 -0.9839 0.9922
-1.6553 -0.4062 -0.9841 0.9922
-1.6534 -0.4149 -0.9842 0.9922
-1.6530 -0.4179 -0.9844 0.9922
-1.6533 -0.4211 -0.9850 0.9922
-1.6540 -0.4274 -0.9863 0.9921
-1.6546 -0.4337 -0.9876 0.9921
-1.6550 -0.4369 -0.9882 0.9921
-1.6556 -0.4432 -0.9895 0.9921
-1.6562 -0.4496 -0.9908 0.9921
-1.6565 -0.4528 -0.9914 0.9921
-1.6570 -0.4592 -0.9927 0.9921
-1.6573 -0.4624 -0.9934 0.9921
-1.6576 -0.4655 -0.9940 0.9921
-1.6583 -0.4751 -0.9960 0.9921
-1.6586 -0.4784 -0.9966 0.9921
-1.6591 -0.4848 -0.9979 0.9920
-1.6593 -0.4880 -0.9986 0.9920
-1.6595 -0.4912 -0.9992 0.9920
-1.6602 -0.5009 -1.0012 0.9920
-1.6604 -0.5041 -1.0018 0.9920
-1.6611 -0.5106 -1.0033 0.9920
-1.6631 -0.5144 -1.0051 0.9920
-1.6690 -0.5259 -1.0103 0.9920
-1.6710 -0.5297 -1.0121 0.9919
-1.6730 -0.5336 -1.0138 0.9919
-1.6750 -0.5374 -1.0156 0.9919
-1.6830 -0.5530 -1.0228 0.9919
-1.6850 -0.5569 -1.0246 0.9918
-2.5309 -0.8512 -1.5416 0.9877
