ply
format ascii 1.0
element vertex 283
property float32 x
property float32 y
property float32 z
end_header
0.0000 -7.3035 1.4795
0.2717 -7.3051 1.4795
0.5445 -7.3095 1.4795
0.8193 -7.3170 1.4794
-0.0000 -6.5823 1.4884
0.2463 -6.5831 1.4885
0.4935 -6.5855 1.4884
0.7423 -6.5894 1.4884
0.9936 -6.5949 1.4884
-0.0000 -5.9852 1.4959
0.2253 -5.9855 1.4959
0.4513 -5.9864 1.4959
0.6786 -5.9878 1.4959
0.9079 -5.9898 1.4959
-0.0000 -5.4823 1.5021
0.2076 -5.4822 1.5021
0.4158 -5.4820 1.5021
0.6250 -5.4817 1.5021
0.8359 -5.4812 1.5022
-0.0000 -5.0524 1.5074
0.1925 -5.0521 1.5074
0.3854 -5.0512 1.5075
0.5793 -5.0495 1.5075
0.7745 -5.0472 1.5075
0.9715 -5.0442 1.5076
-0.0000 -4.6805 1.5120
0.1794 -4.6800 1.5121
0.3592 -4.6785 1.5121
0.5397 -4.6759 1.5121
0.7214 -4.6723 1.5122
0.9045 -4.6675 1.5123
0.0000 -4.3552 1.5161
0.1680 -4.3546 1.5161
0.3363 -4.3526 1.5161
0.5051 -4.3493 1.5162
0.6750 -4.3447 1.5163
0.8461 -4.3387 1.5163
2.0617 -8.7651 3.0688
2.4149 -8.7465 3.0688
2.7728 -8.7248 3.0688
3.1359 -8.6999 3.0688
3.5052 -8.6716 3.0688
3.8815 -8.6398 3.0688
-0.0000 -4.0680 1.5196
0.1579 -4.0672 1.5197
0.3160 -4.0650 1.5197
0.4747 -4.0612 1.5198
0.6341 -4.0558 1.5198
0.7946 -4.0489 1.5199
0.9564 -4.0403 1.5201
2.2607 -8.1355 3.0688
2.5944 -8.1107 3.0688
2.9325 -8.0821 3.0688
3.2756 -8.0497 3.0688
3.6245 -8.0134 3.0688
-0.0000 -3.8123 1.5228
0.1489 -3.8115 1.5228
0.2980 -3.8090 1.5229
0.4475 -3.8048 1.5229
0.5977 -3.7989 1.5230
0.7488 -3.7913 1.5231
0.9010 -3.7819 1.5233
2.1245 -7.5957 3.0688
2.4370 -7.5686 3.0688
2.7531 -7.5374 3.0688
3.0734 -7.5021 3.0688
3.3985 -7.4625 3.0688
0.0000 -3.5830 1.5257
0.1408 -3.5822 1.5257
0.2818 -3.5795 1.5257
0.4232 -3.5750 1.5258
0.5651 -3.5687 1.5259
0.7078 -3.5606 1.5260
0.8515 -3.5506 1.5261
0.9963 -3.5386 1.5263
2.2968 -7.0860 3.0688
2.5935 -7.0530 3.0688
2.8938 -7.0157 3.0688
3.1981 -6.9739 3.0688
0.0000 -3.3761 1.5282
0.1335 -3.3751 1.5283
0.2672 -3.3723 1.5283
0.4012 -3.3677 1.5284
0.5357 -3.3611 1.5285
0.6709 -3.3526 1.5286
0.8068 -3.3421 1.5287
0.9437 -3.3297 1.5289
2.1711 -6.6534 3.0688
2.4507 -6.6191 3.0688
2.7331 -6.5804 3.0688
3.0189 -6.5371 3.0688
0.0000 -3.2202 1.5460
0.1282 -3.2208 1.5468
0.2569 -3.2215 1.5485
0.3864 -3.2222 1.5513
0.5171 -3.2229 1.5550
0.6494 -3.2236 1.5598
0.7836 -3.2244 1.5657
0.9203 -3.2252 1.5726
2.0577 -6.2629 3.0688
2.3218 -6.2278 3.0688
2.5883 -6.1882 3.0688
2.8576 -6.1438 3.0688
-0.0000 -3.2213 1.6368
0.1292 -3.2220 1.6377
0.2588 -3.2227 1.6396
0.3891 -3.2234 1.6428
0.5208 -3.2241 1.6470
0.6540 -3.2248 1.6524
0.7893 -3.2256 1.6591
0.9270 -3.2264 1.6670
1.9547 -5.9083 3.0688
2.2049 -5.8727 3.0688
2.4570 -5.8325 3.0688
2.7115 -5.7876 3.0688
0.0000 -3.2225 1.7297
0.1301 -3.2231 1.7307
0.2606 -3.2238 1.7329
0.3920 -3.2245 1.7364
0.5245 -3.2253 1.7412
0.6587 -3.2260 1.7473
0.7950 -3.2268 1.7548
0.9338 -3.2276 1.7637
1.8607 -5.5847 3.0688
2.0982 -5.5488 3.0688
2.3373 -5.5083 3.0688
2.5784 -5.4632 3.0688
-0.0000 -3.2236 1.8250
0.1310 -3.2243 1.8261
0.2625 -3.2250 1.8286
0.3948 -3.2257 1.8325
0.5284 -3.2265 1.8378
0.6636 -3.2272 1.8446
0.8009 -3.2281 1.8529
0.9409 -3.2289 1.8628
1.7745 -5.2877 3.0688
2.0003 -5.2518 3.0688
2.2276 -5.2113 3.0688
2.4565 -5.1661 3.0688
0.0000 -3.2249 1.9229
0.1320 -3.2255 1.9241
0.2644 -3.2262 1.9268
0.3977 -3.2270 1.9311
0.5323 -3.2277 1.9370
0.6686 -3.2285 1.9445
0.8070 -3.2293 1.9537
0.9481 -3.2302 1.9647
1.6950 -5.0140 3.0688
1.9102 -4.9782 3.0688
2.1266 -4.9378 3.0688
2.3444 -4.8928 3.0688
-0.0000 -3.2261 2.0235
0.1330 -3.2268 2.0248
0.2664 -3.2275 2.0277
0.4008 -3.2282 2.0324
0.5364 -3.2290 2.0389
0.6737 -3.2298 2.0472
0.8133 -3.2307 2.0574
0.9555 -3.2315 2.0695
1.6215 -4.7607 3.0688
1.8269 -4.7251 3.0688
2.0333 -4.6850 3.0688
2.2408 -4.6403 3.0688
-0.0000 -3.2274 2.1270
0.1340 -3.2281 2.1284
0.2685 -3.2288 2.1317
0.4039 -3.2296 2.1368
0.5406 -3.2303 2.1439
0.6790 -3.2312 2.1530
0.8197 -3.2320 2.1641
0.9632 -3.2329 2.1774
1.5531 -4.5254 3.0688
1.7495 -4.4901 3.0688
1.9467 -4.4503 3.0688
2.1448 -4.4061 3.0688
0.0000 -3.2287 2.2338
0.1351 -3.2294 2.2353
0.2706 -3.2301 2.2388
0.4071 -3.2309 2.2444
0.5449 -3.2317 2.2522
0.6845 -3.2325 2.2621
0.8264 -3.2334 2.2742
0.9710 -3.2343 2.2888
1.4894 -4.3060 3.0688
1.6774 -4.2710 3.0688
1.8659 -4.2317 3.0688
2.0553 -4.1880 3.0688
0.0000 -3.2301 2.3440
0.1362 -3.2308 2.3456
0.2728 -3.2315 2.3495
0.4104 -3.2323 2.3556
0.5493 -3.2331 2.3640
0.6901 -3.2340 2.3748
0.8332 -3.2349 2.3880
0.9792 -3.2358 2.4038
1.4298 -4.1007 3.0688
1.6099 -4.0662 3.0688
1.7905 -4.0274 3.0688
1.9717 -3.9843 3.0688
-0.0000 -3.2315 2.4580
0.1373 -3.2322 2.4597
0.2751 -3.2330 2.4639
0.4138 -3.2337 2.4705
0.5540 -3.2346 2.4796
0.6960 -3.2354 2.4913
0.8403 -3.2364 2.5057
0.9876 -3.2373 2.5228
1.3738 -3.9080 3.0688
1.5466 -3.8740 3.0688
1.7198 -3.8358 3.0688
1.8934 -3.7933 3.0688
-0.0000 -3.2330 2.5761
0.1385 -3.2337 2.5779
0.2774 -3.2344 2.5824
0.4174 -3.2352 2.5896
0.5587 -3.2361 2.5994
0.7020 -3.2370 2.6121
0.8477 -3.2379 2.6276
0.9964 -3.2389 2.6462
1.3212 -3.7267 3.0688
1.4871 -3.6932 3.0688
1.6533 -3.6556 3.0688
1.8197 -3.6138 3.0688
-0.0000 -3.6782 3.0688
0.1587 -3.6763 3.0688
0.3174 -3.6706 3.0688
0.4762 -3.6611 3.0688
0.6350 -3.6477 3.0688
0.7940 -3.6305 3.0688
0.9530 -3.6095 3.0688
1.1121 -3.5845 3.0688
1.2715 -3.5556 3.0688
1.4309 -3.5226 3.0688
1.5905 -3.4857 3.0688
1.7503 -3.4446 3.0688
-0.0000 -3.5142 3.0688
0.1529 -3.5123 3.0688
0.3059 -3.5067 3.0688
0.4588 -3.4974 3.0688
0.6118 -3.4842 3.0688
0.7649 -3.4673 3.0688
0.9180 -3.4466 3.0688
1.0712 -3.4221 3.0688
1.2244 -3.3936 3.0688
1.3777 -3.3613 3.0688
1.5312 -3.3250 3.0688
1.6847 -3.2846 3.0688
-0.0000 -3.3585 3.0688
0.1474 -3.3566 3.0688
0.2948 -3.3511 3.0688
0.4423 -3.3419 3.0688
0.5898 -3.3290 3.0688
0.7373 -3.3124 3.0688
0.8847 -3.2920 3.0688
1.0322 -3.2679 3.0688
1.1798 -3.2400 3.0688
1.3273 -3.2082 3.0688
1.4749 -3.1726 3.0688
1.6225 -3.1330 3.0688
-0.0000 -3.2102 3.0688
0.1422 -3.2084 3.0688
0.2844 -3.2030 3.0688
0.4266 -3.1939 3.0688
0.5688 -3.1813 3.0688
0.7110 -3.1650 3.0688
0.8531 -3.1450 3.0688
0.9953 -3.1213 3.0688
1.1373 -3.0939 3.0688
1.2794 -3.0627 3.0688
1.4215 -3.0278 3.0688
1.5634 -2.9890 3.0688
-0.0000 -3.0688 3.0688
0.1372 -3.0670 3.0688
0.2744 -3.0617 3.0688
0.4116 -3.0528 3.0688
0.5487 -3.0404 3.0688
0.6859 -3.0244 3.0688
0.8230 -3.0048 3.0688
0.9600 -2.9816 3.0688
1.0969 -2.9547 3.0688
1.2338 -2.9241 3.0688
1.3705 -2.8899 3.0688
1.5072 -2.8518 3.0688
