ply
format ascii 1.0
element vertex 2160
property float32 x
property float32 y
property float32 z
end_header
-0.3599 8.4827 2.4072
-0.3969 8.4811 2.4072
-0.4339 8.4793 2.4072
-0.4709 8.4773 2.4072
-0.5079 8.4751 2.4072
-0.5449 8.4728 2.4072
-0.5819 8.4704 2.4072
-0.6188 8.4677 2.4072
-0.6558 8.4649 2.4072
-0.6927 8.4620 2.4072
-0.7296 8.4589 2.4072
-0.7665 8.4556 2.4072
-0.8034 8.4522 2.4072
-0.8403 8.4486 2.4072
-0.8772 8.4448 2.4072
-0.9140 8.4409 2.4072
-0.9508 8.4368 2.4072
-0.9876 8.4326 2.4072
-1.0244 8.4282 2.4072
-1.0612 8.4237 2.4072
-1.0979 8.4189 2.4072
-1.1347 8.4141 2.4072
-1.1714 8.4090 2.4072
-1.2081 8.4038 2.4072
-1.2447 8.3985 2.4072
-1.2814 8.3930 2.4072
-1.3180 8.3873 2.4072
-0.5601 3.4659 0.9954
-0.5753 3.4635 0.9955
-0.5904 3.4611 0.9955
-1.4642 8.3630 2.4072
-1.5006 8.3565 2.4072
-1.5371 8.3499 2.4072
-1.5735 8.3431 2.4072
-1.6099 8.3362 2.4072
-1.6463 8.3291 2.4072
-1.6826 8.3218 2.4072
-1.7189 8.3144 2.4072
-1.7552 8.3068 2.4072
-1.7914 8.2990 2.4072
-1.8276 8.2912 2.4072
-1.8638 8.2831 2.4072
-1.8999 8.2749 2.4072
-1.9360 8.2665 2.4072
-1.9720 8.2580 2.4072
-2.0081 8.2493 2.4072
-2.0440 8.2405 2.4072
-2.0800 8.2315 2.4072
-2.1159 8.2223 2.4072
-2.1517 8.2130 2.4072
-2.1876 8.2036 2.4072
-2.2233 8.1939 2.4072
-2.2591 8.1842 2.4072
-2.2948 8.1742 2.4072
-2.3304 8.1641 2.4072
-2.3660 8.1539 2.4072
-2.4016 8.1435 2.4072
-2.4371 8.1330 2.4072
-2.4726 8.1222 2.4072
-2.5080 8.1114 2.4072
-2.5434 8.1004 2.4072
-2.5787 8.0892 2.4072
-2.6140 8.0779 2.4072
-2.6492 8.0664 2.4072
-2.6844 8.0547 2.4072
-2.7195 8.0430 2.4072
-2.7546 8.0310 2.4072
-2.7896 8.0189 2.4072
-2.8246 8.0067 2.4072
-2.8595 7.9943 2.4072
-2.8943 7.9818 2.4072
-2.9291 7.9691 2.4072
-2.9639 7.9562 2.4072
-2.9986 7.9432 2.4072
-3.0332 7.9301 2.4072
-3.0678 7.9168 2.4072
-3.1023 7.9033 2.4072
-3.1368 7.8897 2.4072
-3.1712 7.8759 2.4072
-3.2055 7.8620 2.4072
-3.2398 7.8480 2.4072
-3.2740 7.8338 2.4072
-3.3082 7.8194 2.4072
-3.3423 7.8049 2.4072
-3.3763 7.7903 2.4072
-3.4103 7.7755 2.4072
-3.4442 7.7605 2.4072
-3.4780 7.7454 2.4072
-3.5118 7.7302 2.4072
-3.5455 7.7148 2.4072
-3.5791 7.6993 2.4072
-3.6127 7.6836 2.4072
-3.6462 7.6678 2.4072
-3.6796 7.6518 2.4072
-3.7130 7.6357 2.4072
-3.7463 7.6194 2.4072
-3.7795 7.6030 2.4072
-3.8127 7.5865 2.4072
-3.8457 7.5698 2.4072
-3.8787 7.5529 2.4072
-3.9117 7.5359 2.4072
-3.9445 7.5188 2.4072
-3.9773 7.5015 2.4072
-4.0100 7.4841 2.4072
-4.0426 7.4666 2.4072
-4.0752 7.4489 2.4072
-4.1077 7.4310 2.4072
-4.1401 7.4131 2.4072
-4.1724 7.3949 2.4072
-4.2046 7.3767 2.4072
-4.2368 7.3583 2.4072
-4.2689 7.3397 2.4072
-4.3009 7.3210 2.4072
-4.3328 7.3022 2.4072
-4.3646 7.2833 2.4072
-4.3964 7.2642 2.4072
-4.4280 7.2449 2.4072
-4.4596 7.2256 2.4072
-4.4911 7.2060 2.4072
-4.5225 7.1864 2.4072
-4.5539 7.1666 2.4072
-4.5851 7.1467 2.4072
-4.6162 7.1266 2.4072
-4.6473 7.1064 2.4072
-4.6783 7.0861 2.4072
-4.7092 7.0656 2.4072
-4.7400 7.0450 2.4072
-4.7707 7.0243 2.4072
-4.8013 7.0034 2.4072
-4.8318 6.9824 2.4072
-4.8623 6.9613 2.4072
-4.8926 6.9400 2.4072
-4.9229 6.9186 2.4072
-4.9530 6.8971 2.4072
-4.9831 6.8754 2.4072
-5.0131 6.8536 2.4072
-5.0429 6.8317 2.4072
-5.0727 6.8097 2.4072
-5.1024 6.7875 2.4072
-5.1320 6.7652 2.4072
-5.1615 6.7427 2.4072
-5.1909 6.7202 2.4072
-5.2201 6.6975 2.4072
-5.2493 6.6747 2.4072
-5.2784 6.6517 2.4072
-5.3074 6.6286 2.4072
-5.3363 6.6054 2.4072
-5.3651 6.5821 2.4072
-5.3938 6.5586 2.4072
-5.4224 6.5351 2.4072
-5.4509 6.5114 2.4072
-5.4792 6.4875 2.4072
-5.5075 6.4636 2.4072
-5.5357 6.4395 2.4072
-5.5637 6.4153 2.4072
-5.5917 6.3910 2.4072
-5.6196 6.3665 2.4072
-5.6473 6.3420 2.4072
-5.6750 6.3173 2.4072
-5.7025 6.2925 2.4072
-5.7299 6.2676 2.4072
-5.7572 6.2425 2.4072
-5.7844 6.2174 2.4072
-5.8115 6.1921 2.4072
-5.8385 6.1667 2.4072
-5.8654 6.1412 2.4072
-5.8921 6.1156 2.4072
-5.9188 6.0898 2.4072
-5.9453 6.0639 2.4072
-5.9718 6.0380 2.4072
-5.9981 6.0119 2.4072
-6.0243 5.9857 2.4072
-6.0504 5.9593 2.4072
-6.0763 5.9329 2.4072
-6.1022 5.9063 2.4072
-6.1279 5.8797 2.4072
-6.1535 5.8529 2.4072
-6.1791 5.8260 2.4072
-6.2044 5.7990 2.4072
-6.2297 5.7719 2.4072
-6.2549 5.7447 2.4072
-6.2799 5.7174 2.4072
-6.3048 5.6899 2.4072
-6.3296 5.6624 2.4072
-6.3543 5.6347 2.4072
-6.3788 5.6070 2.4072
-6.4033 5.5791 2.4072
-6.4276 5.5511 2.4072
-6.4518 5.5231 2.4072
-6.4758 5.4949 2.4072
-6.4998 5.4666 2.4072
-6.5236 5.4382 2.4072
-6.5286 5.3942 2.4003
-6.5286 5.3465 2.3917
-6.5286 5.2990 2.3832
-6.5286 5.2519 2.3748
-6.5286 5.2052 2.3665
-6.5286 5.1587 2.3583
-6.5294 5.1133 2.3505
-6.5311 5.0688 2.3432
-6.5328 5.0246 2.3359
-6.5345 4.9806 2.3287
-6.5361 4.9369 2.3215
-6.5377 4.8935 2.3145
-6.5393 4.8503 2.3075
-6.5508 4.8147 2.3041
-6.5718 4.7860 2.3041
-6.5926 4.7573 2.3041
-6.6133 4.7285 2.3041
-6.6339 4.6997 2.3041
-6.6544 4.6707 2.3041
-6.6748 4.6416 2.3041
-6.6950 4.6125 2.3041
-6.7210 4.5873 2.3062
-6.7350 4.5539 2.3041
-6.7549 4.5245 2.3041
-6.7746 4.4950 2.3041
-6.7942 4.4654 2.3041
-6.8136 4.4358 2.3041
-6.8329 4.4060 2.3041
-6.8521 4.3762 2.3041
-6.8712 4.3463 2.3041
-6.8901 4.3162 2.3041
-6.9089 4.2862 2.3041
-6.9276 4.2560 2.3041
-6.9461 4.2257 2.3041
-6.9646 4.1954 2.3041
-6.9828 4.1650 2.3041
-7.0010 4.1345 2.3041
-7.0190 4.1039 2.3041
-7.0369 4.0733 2.3041
-7.0546 4.0426 2.3041
-7.0722 4.0118 2.3041
-7.0897 3.9809 2.3041
-7.1070 3.9499 2.3041
-7.1242 3.9189 2.3041
-7.1413 3.8878 2.3041
-7.1582 3.8566 2.3041
-7.1750 3.8254 2.3041
-7.1917 3.7940 2.3041
-7.2082 3.7626 2.3041
-7.2246 3.7312 2.3041
-7.2409 3.6996 2.3041
-7.2570 3.6680 2.3041
-7.2729 3.6363 2.3041
-7.2888 3.6046 2.3041
-7.3045 3.5728 2.3041
-7.3200 3.5409 2.3041
-7.3355 3.5089 2.3041
-7.3507 3.4769 2.3041
-7.3659 3.4448 2.3041
-7.3809 3.4126 2.3041
-7.3957 3.3804 2.3041
-7.4105 3.3481 2.3041
-7.4250 3.3158 2.3041
-7.4395 3.2834 2.3041
-7.4538 3.2509 2.3041
-7.4679 3.2183 2.3041
-7.4819 3.1857 2.3041
-7.4958 3.1531 2.3041
-7.5095 3.1204 2.3041
-7.5231 3.0876 2.3041
-7.5366 3.0548 2.3041
-7.5499 3.0219 2.3041
-7.5630 2.9889 2.3041
-7.5760 2.9559 2.3041
-7.5889 2.9228 2.3041
-7.6016 2.8897 2.3041
-7.6142 2.8565 2.3041
-7.6267 2.8233 2.3041
-7.6389 2.7900 2.3041
-7.6511 2.7566 2.3041
-7.6631 2.7232 2.3041
-7.6749 2.6898 2.3041
-7.6867 2.6563 2.3041
-7.6982 2.6227 2.3041
-7.7096 2.5891 2.3041
-7.7209 2.5555 2.3041
-7.7320 2.5218 2.3041
-7.7430 2.4880 2.3041
-7.7538 2.4542 2.3041
-7.7645 2.4204 2.3041
-7.7750 2.3865 2.3041
-7.7854 2.3526 2.3041
-7.7957 2.3186 2.3041
-7.8058 2.2846 2.3041
-7.8157 2.2505 2.3041
-7.8255 2.2164 2.3041
-7.8351 2.1822 2.3041
-7.8446 2.1480 2.3041
-7.8540 2.1138 2.3041
-7.8632 2.0795 2.3041
-7.8722 2.0452 2.3041
-7.8811 2.0108 2.3041
-7.8899 1.9765 2.3041
-7.8985 1.9420 2.3041
-7.9069 1.9075 2.3041
-7.9152 1.8730 2.3041
-7.9233 1.8385 2.3041
-7.9313 1.8039 2.3041
-7.9392 1.7693 2.3041
-7.9469 1.7346 2.3041
-7.9544 1.6999 2.3041
-7.9618 1.6652 2.3041
-7.9690 1.6305 2.3041
-7.9761 1.5957 2.3041
-7.9831 1.5609 2.3041
-7.9899 1.5261 2.3041
-7.9965 1.4912 2.3041
-8.0030 1.4563 2.3041
-8.0093 1.4214 2.3041
-8.0155 1.3864 2.3041
-8.0215 1.3515 2.3041
-8.0274 1.3164 2.3041
-8.0331 1.2814 2.3041
-8.0387 1.2463 2.3041
-8.0441 1.2113 2.3041
-8.0493 1.1762 2.3041
-8.0544 1.1410 2.3041
-8.0594 1.1059 2.3041
-8.0642 1.0707 2.3041
-8.0688 1.0355 2.3041
-8.0733 1.0003 2.3041
-8.0777 0.9651 2.3041
-8.0818 0.9298 2.3041
-8.0859 0.8946 2.3041
-8.0898 0.8593 2.3041
-8.0935 0.8240 2.3041
-8.0970 0.7887 2.3041
-8.1005 0.7533 2.3041
-8.1037 0.7180 2.3041
-8.1068 0.6826 2.3041
-8.1098 0.6472 2.3041
-8.1126 0.6118 2.3041
-8.1152 0.5764 2.3041
-8.1177 0.5410 2.3041
-8.1201 0.5056 2.3041
-8.1222 0.4702 2.3041
-8.1243 0.4347 2.3041
-8.1261 0.3993 2.3041
-8.1279 0.3638 2.3041
-8.1294 0.3283 2.3041
-8.1308 0.2929 2.3041
-8.1321 0.2574 2.3041
-8.1332 0.2219 2.3041
-8.1341 0.1864 2.3041
-8.1349 0.1509 2.3041
-8.1356 0.1154 2.3041
-8.1360 0.0799 2.3041
-8.1364 0.0444 2.3041
-8.1365 0.0089 2.3041
-8.1365 -0.0266 2.3041
-8.1364 -0.0621 2.3041
-8.1361 -0.0976 2.3041
-8.1357 -0.1331 2.3041
-8.1351 -0.1686 2.3041
-8.1343 -0.2041 2.3041
-8.1334 -0.2396 2.3041
-8.1323 -0.2751 2.3041
-8.1311 -0.3105 2.3041
-8.1297 -0.3460 2.3041
-8.1282 -0.3815 2.3041
-8.1265 -0.4169 2.3041
-8.1246 -0.4524 2.3041
-8.1226 -0.4879 2.3041
-8.1205 -0.5233 2.3041
-8.1182 -0.5587 2.3041
-8.1157 -0.5942 2.3041
-8.1131 -0.6296 2.3041
-8.1103 -0.6650 2.3041
-8.1074 -0.7003 2.3041
-8.1043 -0.7357 2.3041
-8.1011 -0.7711 2.3041
-8.0977 -0.8064 2.3041
-8.0942 -0.8418 2.3041
-8.0905 -0.8771 2.3041
-8.0866 -0.9124 2.3041
-8.0826 -0.9477 2.3041
-8.0785 -0.9829 2.3041
-8.0742 -1.0182 2.3041
-8.0697 -1.0534 2.3041
-8.0651 -1.0886 2.3041
-8.0603 -1.1238 2.3041
-8.0554 -1.1590 2.3041
-8.0503 -1.1941 2.3041
-8.0451 -1.2292 2.3041
-8.0397 -1.2643 2.3041
-8.0341 -1.2994 2.3041
-8.0284 -1.3345 2.3041
-8.0226 -1.3695 2.3041
-8.0166 -1.4045 2.3041
-8.0104 -1.4395 2.3041
-8.0041 -1.4744 2.3041
-7.9977 -1.5093 2.3041
-7.9911 -1.5442 2.3041
-7.9843 -1.5791 2.3041
-7.9774 -1.6139 2.3041
-7.9703 -1.6487 2.3041
-7.9631 -1.6835 2.3041
-7.9558 -1.7182 2.3041
-7.9482 -1.7530 2.3041
-7.9406 -1.7876 2.3041
-7.9327 -1.8223 2.3041
-7.9248 -1.8569 2.3041
-7.9166 -1.8915 2.3041
-7.9084 -1.9260 2.3041
-7.8999 -1.9605 2.3041
-7.8914 -1.9950 2.3041
-7.8826 -2.0294 2.3041
-7.8738 -2.0638 2.3041
-7.8647 -2.0981 2.3041
-7.8556 -2.1324 2.3041
-7.8462 -2.1667 2.3041
-7.8368 -2.2009 2.3041
-7.8271 -2.2351 2.3041
-7.8174 -2.2693 2.3041
-7.8074 -2.3034 2.3041
-7.7974 -2.3374 2.3041
-7.7871 -2.3714 2.3041
-7.7768 -2.4054 2.3041
-7.7663 -2.4393 2.3041
-7.7556 -2.4732 2.3041
-7.7448 -2.5070 2.3041
-7.7338 -2.5408 2.3041
-7.7227 -2.5746 2.3041
-7.7115 -2.6083 2.3041
-7.7000 -2.6419 2.3041
-7.6885 -2.6755 2.3041
-7.6768 -2.7090 2.3041
-7.6650 -2.7425 2.3041
-7.6530 -2.7759 2.3041
-7.6408 -2.8093 2.3041
-7.6286 -2.8427 2.3041
-7.6161 -2.8759 2.3041
-7.6036 -2.9092 2.3041
-7.5908 -2.9423 2.3041
-7.5780 -2.9754 2.3041
-7.5650 -3.0085 2.3041
-7.5518 -3.0415 2.3041
-7.5385 -3.0744 2.3041
-7.5251 -3.1073 2.3041
-7.5115 -3.1401 2.3041
-7.4978 -3.1729 2.3041
-7.4839 -3.2056 2.3041
-7.4699 -3.2383 2.3041
-7.4558 -3.2709 2.3041
-7.4415 -3.3034 2.3041
-7.4270 -3.3358 2.3041
-7.4125 -3.3682 2.3041
-7.3978 -3.4006 2.3041
-7.3829 -3.4328 2.3041
-7.3679 -3.4650 2.3041
-7.3527 -3.4972 2.3041
-7.3375 -3.5292 2.3041
-7.3220 -3.5612 2.3041
-7.3065 -3.5932 2.3041
-7.2908 -3.6251 2.3041
-7.2749 -3.6568 2.3041
-7.2590 -3.6886 2.3041
-7.2429 -3.7202 2.3041
-7.2266 -3.7518 2.3041
-7.2102 -3.7834 2.3041
-7.1937 -3.8148 2.3041
-7.1770 -3.8462 2.3041
-7.1602 -3.8775 2.3041
-7.1433 -3.9087 2.3041
-7.1262 -3.9399 2.3041
-7.1090 -3.9709 2.3041
-7.0916 -4.0019 2.3041
-7.0741 -4.0329 2.3041
-7.0565 -4.0637 2.3041
-7.0388 -4.0945 2.3041
-7.0209 -4.1252 2.3041
-7.0029 -4.1558 2.3041
-6.9847 -4.1864 2.3041
-6.9664 -4.2168 2.3041
-6.9480 -4.2472 2.3041
-6.9295 -4.2775 2.3041
-6.9108 -4.3077 2.3041
-6.8919 -4.3379 2.3041
-6.8730 -4.3679 2.3041
-6.8539 -4.3979 2.3041
-6.8347 -4.4278 2.3041
-6.8154 -4.4576 2.3041
-6.7959 -4.4873 2.3041
-6.7763 -4.5170 2.3041
-6.7566 -4.5465 2.3041
-6.7367 -4.5760 2.3041
-6.7212 -4.6084 2.3057
-6.6966 -4.6346 2.3041
-6.6764 -4.6639 2.3041
-6.6560 -4.6930 2.3041
-6.6355 -4.7220 2.3041
-6.6149 -4.7509 2.3041
-6.5941 -4.7798 2.3041
-6.5732 -4.8085 2.3041
-6.5522 -4.8372 2.3041
-6.5395 -4.8720 2.3071
-6.5379 -4.9153 2.3140
-6.5362 -4.9588 2.3211
-6.5346 -5.0027 2.3282
-6.5329 -5.0468 2.3354
-6.5312 -5.0911 2.3427
-6.5295 -5.1357 2.3501
-6.5286 -5.1813 2.3579
-6.5286 -5.2279 2.3661
-6.5286 -5.2748 2.3744
-6.5286 -5.3220 2.3828
-6.5286 -5.3696 2.3913
-6.5286 -5.4175 2.3999
-6.5247 -5.4625 2.4072
-6.5008 -5.4910 2.4072
-6.4768 -5.5193 2.4072
-6.4527 -5.5476 2.4072
-6.4285 -5.5757 2.4072
-6.4042 -5.6037 2.4072
-6.3797 -5.6316 2.4072
-6.3551 -5.6594 2.4072
-6.3304 -5.6872 2.4072
-6.3055 -5.7148 2.4072
-6.2806 -5.7423 2.4072
-6.2555 -5.7696 2.4072
-6.2303 -5.7969 2.4072
-6.2050 -5.8241 2.4072
-6.1795 -5.8511 2.4072
-6.1540 -5.8781 2.4072
-6.1283 -5.9049 2.4072
-6.1025 -5.9316 2.4072
-6.0766 -5.9582 2.4072
-6.0506 -5.9847 2.4072
-6.0245 -6.0111 2.4072
-5.9982 -6.0373 2.4072
-5.9719 -6.0635 2.4072
-5.9454 -6.0895 2.4072
-5.9188 -6.1154 2.4072
-5.8921 -6.1412 2.4072
-5.8653 -6.1669 2.4072
-5.8383 -6.1925 2.4072
-5.8113 -6.2179 2.4072
-5.7841 -6.2433 2.4072
-5.7569 -6.2685 2.4072
-5.7295 -6.2935 2.4072
-5.7020 -6.3185 2.4072
-5.6744 -6.3434 2.4072
-5.6467 -6.3681 2.4072
-5.6189 -6.3927 2.4072
-5.5910 -6.4172 2.4072
-5.5630 -6.4416 2.4072
-5.5349 -6.4658 2.4072
-5.5066 -6.4899 2.4072
-5.4783 -6.5139 2.4072
-5.4498 -6.5378 2.4072
-5.4213 -6.5616 2.4072
-5.3926 -6.5852 2.4072
-5.3639 -6.6087 2.4072
-5.3350 -6.6321 2.4072
-5.3061 -6.6553 2.4072
-5.2770 -6.6784 2.4072
-5.2479 -6.7014 2.4072
-5.2186 -6.7243 2.4072
-5.1892 -6.7470 2.4072
-5.1598 -6.7696 2.4072
-5.1302 -6.7921 2.4072
-5.1006 -6.8145 2.4072
-5.0708 -6.8367 2.4072
-5.0409 -6.8588 2.4072
-5.0110 -6.8808 2.4072
-4.9810 -6.9026 2.4072
-4.9508 -6.9243 2.4072
-4.9206 -6.9459 2.4072
-4.8903 -6.9673 2.4072
-4.8598 -6.9886 2.4072
-4.8293 -7.0098 2.4072
-4.7987 -7.0308 2.4072
-4.7680 -7.0517 2.4072
-4.7372 -7.0725 2.4072
-4.7064 -7.0931 2.4072
-4.6754 -7.1136 2.4072
-4.6443 -7.1340 2.4072
-4.6132 -7.1542 2.4072
-4.5819 -7.1743 2.4072
-4.5506 -7.1943 2.4072
-4.5192 -7.2141 2.4072
-4.4877 -7.2338 2.4072
-4.4561 -7.2533 2.4072
-4.4245 -7.2727 2.4072
-4.3927 -7.2920 2.4072
-4.3609 -7.3111 2.4072
-4.3290 -7.3301 2.4072
-4.2970 -7.3489 2.4072
-4.2649 -7.3677 2.4072
-4.2327 -7.3862 2.4072
-4.2005 -7.4047 2.4072
-4.1681 -7.4229 2.4072
-4.1357 -7.4411 2.4072
-4.1032 -7.4591 2.4072
-4.0707 -7.4770 2.4072
-4.0380 -7.4947 2.4072
-4.0053 -7.5123 2.4072
-3.9725 -7.5297 2.4072
-3.9396 -7.5470 2.4072
-3.9067 -7.5641 2.4072
-3.8737 -7.5811 2.4072
-3.8406 -7.5980 2.4072
-3.8074 -7.6147 2.4072
-3.7741 -7.6313 2.4072
-3.7408 -7.6477 2.4072
-3.7074 -7.6640 2.4072
-3.6740 -7.6801 2.4072
-3.6405 -7.6961 2.4072
-3.6069 -7.7120 2.4072
-3.5732 -7.7277 2.4072
-3.5395 -7.7432 2.4072
-3.5057 -7.7586 2.4072
-3.4718 -7.7739 2.4072
-3.4379 -7.7890 2.4072
-3.4039 -7.8039 2.4072
-3.3698 -7.8187 2.4072
-3.3357 -7.8334 2.4072
-3.3015 -7.8479 2.4072
-3.2672 -7.8622 2.4072
-3.2329 -7.8765 2.4072
-3.1985 -7.8905 2.4072
-3.1641 -7.9044 2.4072
-3.1295 -7.9182 2.4072
-3.0950 -7.9318 2.4072
-3.0604 -7.9453 2.4072
-3.0257 -7.9586 2.4072
-2.9909 -7.9717 2.4072
-2.9561 -7.9847 2.4072
-2.9213 -7.9976 2.4072
-2.8864 -8.0103 2.4072
-2.8514 -8.0228 2.4072
-2.8164 -8.0352 2.4072
-2.7813 -8.0474 2.4072
-2.7462 -8.0595 2.4072
-2.7110 -8.0714 2.4072
-2.6758 -8.0832 2.4072
-2.6405 -8.0949 2.4072
-2.6052 -8.1063 2.4072
-2.5698 -8.1176 2.4072
-2.5343 -8.1288 2.4072
-2.4989 -8.1398 2.4072
-2.4633 -8.1506 2.4072
-2.4278 -8.1613 2.4072
-2.3921 -8.1719 2.4072
-2.3565 -8.1823 2.4072
-2.3208 -8.1925 2.4072
-2.2850 -8.2026 2.4072
-2.2492 -8.2125 2.4072
-2.2134 -8.2222 2.4072
-2.1775 -8.2319 2.4072
-2.1415 -8.2413 2.4072
-2.1056 -8.2506 2.4072
-2.0696 -8.2597 2.4072
-2.0335 -8.2687 2.4072
-1.9974 -8.2775 2.4072
-1.9613 -8.2862 2.4072
-1.9251 -8.2947 2.4072
-1.8889 -8.3030 2.4072
-1.8527 -8.3112 2.4072
-1.8164 -8.3192 2.4072
-1.7801 -8.3271 2.4072
-1.7438 -8.3348 2.4072
-1.7074 -8.3424 2.4072
-1.6710 -8.3498 2.4072
-1.6345 -8.3570 2.4072
-1.5981 -8.3641 2.4072
-1.5616 -8.3710 2.4072
-1.5250 -8.3777 2.4072
-1.4885 -8.3843 2.4072
-1.4519 -8.3908 2.4072
-1.4153 -8.3970 2.4072
-1.3786 -8.4032 2.4072
-1.3420 -8.4091 2.4072
-1.3053 -8.4149 2.4072
-1.2685 -8.4205 2.4072
-1.2318 -8.4260 2.4072
-1.1950 -8.4313 2.4072
-1.1582 -8.4365 2.4072
-1.1214 -8.4415 2.4072
-1.0846 -8.4463 2.4072
-1.0477 -8.4510 2.4072
-1.0108 -8.4555 2.4072
-0.9739 -8.4598 2.4072
-0.9370 -8.4640 2.4072
-0.9001 -8.4680 2.4072
-0.8631 -8.4719 2.4072
-0.8262 -8.4756 2.4072
-0.7892 -8.4791 2.4072
-0.7522 -8.4825 2.4072
-0.7152 -8.4857 2.4072
-0.6781 -8.4888 2.4072
-0.6411 -8.4917 2.4072
-0.6040 -8.4944 2.4072
-0.5670 -8.4970 2.4072
-0.5299 -8.4994 2.4072
-0.4928 -8.5016 2.4072
-0.4557 -8.5037 2.4072
-0.4186 -8.5056 2.4072
-0.3815 -8.5074 2.4072
-0.3444 -8.5090 2.4072
-0.3073 -8.5104 2.4072
-0.2701 -8.5117 2.4072
-0.2330 -8.5128 2.4072
-0.1959 -8.5138 2.4072
-0.1587 -8.5146 2.4072
-0.1216 -8.5152 2.4072
-0.0844 -8.5156 2.4072
-0.0473 -8.5159 2.4072
-0.0101 -8.5161 2.4072
0.0271 -8.5161 2.4072
0.0642 -8.5159 2.4072
0.1014 -8.5155 2.4072
0.1385 -8.5150 2.4072
0.1757 -8.5143 2.4072
0.2128 -8.5135 2.4072
0.2500 -8.5125 2.4072
0.2871 -8.5113 2.4072
0.3242 -8.5100 2.4072
0.3613 -8.5085 2.4072
0.3985 -8.5069 2.4072
0.4356 -8.5051 2.4072
0.4727 -8.5031 2.4072
0.5098 -8.5010 2.4072
0.5469 -8.4987 2.4072
0.5839 -8.4962 2.4072
0.6210 -8.4936 2.4072
0.6580 -8.4908 2.4072
0.6951 -8.4879 2.4072
0.7321 -8.4847 2.4072
0.7691 -8.4815 2.4072
0.8061 -8.4780 2.4072
0.8431 -8.4745 2.4072
0.8801 -8.4707 2.4072
0.9170 -8.4668 2.4072
0.9539 -8.4627 2.4072
0.9908 -8.4585 2.4072
1.0277 -8.4541 2.4072
1.0646 -8.4495 2.4072
1.1015 -8.4448 2.4072
1.1383 -8.4399 2.4072
1.1751 -8.4349 2.4072
1.2119 -8.4297 2.4072
1.2487 -8.4243 2.4072
1.2854 -8.4188 2.4072
1.3221 -8.4131 2.4072
1.3588 -8.4072 2.4072
1.3955 -8.4013 2.4072
1.4321 -8.3951 2.4072
1.4687 -8.3888 2.4072
1.5053 -8.3823 2.4072
1.5173 -8.2423 2.3689
1.5247 -8.0839 2.3253
1.5456 -8.0032 2.3040
1.5805 -7.9964 2.3040
1.6154 -7.9894 2.3040
1.6503 -7.9823 2.3040
1.6851 -7.9750 2.3040
1.7280 -8.0055 2.3149
1.7546 -7.9600 2.3040
1.7893 -7.9523 2.3040
1.8240 -7.9444 2.3040
1.8519 -7.9075 2.2956
1.8519 -7.7549 2.2536
1.8562 -7.6258 2.2184
1.8844 -7.5971 2.2124
1.9175 -7.5888 2.2124
1.9506 -7.5803 2.2124
1.9836 -7.5717 2.2124
2.0917 -7.8446 2.2948
2.1259 -7.8354 2.2948
2.1601 -7.8260 2.2948
2.1616 -7.7003 2.2607
2.1616 -7.5732 2.2261
2.2623 -7.7971 2.2948
2.2963 -7.7871 2.2948
2.3303 -7.7770 2.2948
2.3642 -7.7668 2.2948
2.3981 -7.7564 2.2948
2.4295 -7.7383 2.2926
2.4393 -7.6525 2.2703
2.4393 -7.5387 2.2397
2.4464 -7.4496 2.2164
2.4745 -7.4257 2.2124
2.5069 -7.4149 2.2124
2.5392 -7.4038 2.2124
2.5715 -7.3927 2.2124
2.7114 -7.6868 2.3040
2.7450 -7.6749 2.3040
2.7784 -7.6628 2.3040
2.8118 -7.6506 2.3040
2.8452 -7.6383 2.3040
2.8784 -7.6258 2.3040
2.9117 -7.6131 2.3040
2.9449 -7.6003 2.3040
2.9780 -7.5874 2.3040
3.0111 -7.5743 2.3040
3.0441 -7.5611 2.3040
3.0770 -7.5478 2.3040
3.1099 -7.5343 2.3040
3.1428 -7.5206 2.3040
3.1755 -7.5068 2.3040
3.2083 -7.4929 2.3040
3.2409 -7.4788 2.3040
3.2735 -7.4646 2.3040
3.3060 -7.4502 2.3040
3.3385 -7.4357 2.3040
3.3709 -7.4211 2.3040
3.4033 -7.4063 2.3040
3.4355 -7.3914 2.3040
3.4677 -7.3763 2.3040
3.4999 -7.3611 2.3040
3.5320 -7.3457 2.3040
3.5640 -7.3302 2.3040
3.5959 -7.3146 2.3040
3.6278 -7.2988 2.3040
3.6596 -7.2829 2.3040
3.6913 -7.2669 2.3040
3.7230 -7.2507 2.3040
3.7546 -7.2344 2.3040
3.7861 -7.2179 2.3040
3.8175 -7.2013 2.3040
3.8489 -7.1846 2.3040
3.8802 -7.1677 2.3040
3.9114 -7.1507 2.3040
3.9426 -7.1335 2.3040
3.9737 -7.1162 2.3040
4.0047 -7.0988 2.3040
4.0356 -7.0813 2.3040
4.0664 -7.0636 2.3040
4.0972 -7.0457 2.3040
4.1279 -7.0278 2.3040
4.1585 -7.0097 2.3040
4.1891 -6.9915 2.3040
4.2195 -6.9731 2.3040
4.2499 -6.9546 2.3040
4.2802 -6.9360 2.3040
4.3104 -6.9172 2.3040
4.3405 -6.8984 2.3040
4.3706 -6.8793 2.3040
4.4005 -6.8602 2.3040
4.4304 -6.8409 2.3040
4.4602 -6.8215 2.3040
4.4899 -6.8020 2.3040
4.5195 -6.7823 2.3040
4.5491 -6.7625 2.3040
4.5785 -6.7426 2.3040
4.6079 -6.7225 2.3040
4.6371 -6.7023 2.3040
4.6663 -6.6820 2.3040
4.6954 -6.6616 2.3040
4.7244 -6.6410 2.3040
4.7533 -6.6203 2.3040
4.7822 -6.5995 2.3040
4.8109 -6.5785 2.3040
4.8395 -6.5575 2.3040
4.8681 -6.5363 2.3040
4.8965 -6.5150 2.3040
4.9249 -6.4935 2.3040
4.9532 -6.4720 2.3040
4.9813 -6.4503 2.3040
5.0094 -6.4284 2.3040
5.0374 -6.4065 2.3040
5.0653 -6.3845 2.3040
5.0931 -6.3623 2.3040
5.1208 -6.3400 2.3040
5.1484 -6.3175 2.3040
5.1759 -6.2950 2.3040
5.2033 -6.2723 2.3040
5.2306 -6.2496 2.3040
5.2578 -6.2267 2.3040
5.2849 -6.2037 2.3040
5.3119 -6.1805 2.3040
5.3388 -6.1573 2.3040
5.3656 -6.1339 2.3040
5.3923 -6.1104 2.3040
5.4188 -6.0868 2.3040
5.4453 -6.0631 2.3040
5.4717 -6.0392 2.3040
5.4980 -6.0153 2.3040
5.5242 -5.9912 2.3040
5.5799 -5.9989 2.3163
5.6048 -5.9732 2.3158
5.6296 -5.9475 2.3153
5.6543 -5.9216 2.3149
5.6790 -5.8957 2.3144
5.7034 -5.8696 2.3139
5.7278 -5.8435 2.3134
5.7521 -5.8173 2.3130
5.7762 -5.7909 2.3125
5.8006 -5.7648 2.3122
5.8254 -5.7392 2.3121
5.8501 -5.7135 2.3120
5.8748 -5.6876 2.3119
5.8992 -5.6617 2.3118
5.9236 -5.6357 2.3117
5.9479 -5.6095 2.3116
5.9720 -5.5833 2.3115
5.9961 -5.5569 2.3114
6.0200 -5.5305 2.3113
6.0438 -5.5039 2.3112
6.0675 -5.4772 2.3112
6.0911 -5.4505 2.3111
6.1145 -5.4236 2.3110
6.1379 -5.3967 2.3109
6.1611 -5.3696 2.3108
6.1842 -5.3424 2.3107
6.2072 -5.3152 2.3106
6.2301 -5.2878 2.3105
6.2528 -5.2604 2.3104
6.2755 -5.2328 2.3104
6.2980 -5.2052 2.3103
6.3204 -5.1774 2.3102
6.3426 -5.1496 2.3101
6.3648 -5.1217 2.3100
6.3868 -5.0937 2.3099
6.4087 -5.0655 2.3098
6.4305 -5.0373 2.3098
6.4521 -5.0090 2.3097
6.4737 -4.9806 2.3096
6.4951 -4.9521 2.3095
6.5163 -4.9235 2.3094
6.5375 -4.8949 2.3093
6.5585 -4.8661 2.3093
6.5794 -4.8373 2.3092
6.6002 -4.8083 2.3091
6.6209 -4.7793 2.3090
6.6414 -4.7502 2.3089
6.6618 -4.7210 2.3089
6.6821 -4.6917 2.3088
6.7023 -4.6623 2.3087
6.7223 -4.6328 2.3086
6.7422 -4.6033 2.3086
6.7619 -4.5737 2.3085
6.7816 -4.5440 2.3084
6.8011 -4.5141 2.3083
6.8205 -4.4843 2.3083
6.8397 -4.4543 2.3082
6.8588 -4.4243 2.3081
6.8778 -4.3941 2.3080
6.8967 -4.3639 2.3080
6.9154 -4.3336 2.3079
6.9340 -4.3033 2.3078
6.9525 -4.2728 2.3078
6.9708 -4.2423 2.3077
6.9890 -4.2117 2.3076
7.0070 -4.1810 2.3075
7.0250 -4.1503 2.3075
7.0428 -4.1194 2.3074
7.0604 -4.0885 2.3073
7.0780 -4.0575 2.3073
7.0954 -4.0265 2.3072
7.1126 -3.9954 2.3071
7.1297 -3.9642 2.3071
7.1467 -3.9329 2.3070
7.1636 -3.9015 2.3069
7.1803 -3.8701 2.3069
7.1969 -3.8386 2.3068
7.2133 -3.8071 2.3067
7.2296 -3.7754 2.3067
7.2458 -3.7437 2.3066
7.2618 -3.7120 2.3066
7.2777 -3.6801 2.3065
7.2935 -3.6482 2.3064
7.3091 -3.6163 2.3064
7.3246 -3.5842 2.3063
7.3399 -3.5521 2.3063
7.3551 -3.5199 2.3062
7.3702 -3.4877 2.3061
7.3851 -3.4554 2.3061
7.3999 -3.4231 2.3060
7.4145 -3.3907 2.3060
7.4290 -3.3582 2.3059
7.4434 -3.3256 2.3059
7.4576 -3.2930 2.3058
7.4717 -3.2604 2.3058
7.4856 -3.2276 2.3057
7.4994 -3.1949 2.3057
7.4013 -3.1150 2.2713
7.4145 -3.0825 2.2712
7.4276 -3.0500 2.2711
7.4405 -3.0175 2.2710
7.4533 -2.9849 2.2710
7.4660 -2.9522 2.2709
7.4785 -2.9195 2.2708
7.4909 -2.8867 2.2707
7.5031 -2.8539 2.2707
7.5152 -2.8210 2.2706
7.5272 -2.7881 2.2705
7.5390 -2.7551 2.2704
7.5507 -2.7221 2.2704
7.5622 -2.6890 2.2703
7.5736 -2.6559 2.2702
7.5848 -2.6228 2.2702
7.5959 -2.5896 2.2701
7.6069 -2.5563 2.2700
7.6177 -2.5230 2.2700
7.6284 -2.4897 2.2699
7.6389 -2.4563 2.2698
7.6493 -2.4228 2.2698
7.6595 -2.3893 2.2697
7.6696 -2.3558 2.2697
7.6796 -2.3223 2.2696
7.6894 -2.2887 2.2695
7.6991 -2.2550 2.2695
7.7086 -2.2213 2.2694
7.7180 -2.1876 2.2694
7.7272 -2.1539 2.2693
7.7364 -2.1201 2.2693
7.7455 -2.0863 2.2693
7.7544 -2.0524 2.2692
7.7632 -2.0186 2.2692
7.7718 -1.9847 2.2692
7.7803 -1.9507 2.2692
7.7887 -1.9167 2.2692
7.7969 -1.8827 2.2692
7.8049 -1.8486 2.2692
7.8128 -1.8145 2.2692
7.8206 -1.7804 2.2691
7.8282 -1.7463 2.2691
7.8357 -1.7121 2.2691
7.8430 -1.6778 2.2691
7.8501 -1.6436 2.2691
7.8571 -1.6093 2.2691
7.8640 -1.5750 2.2691
7.8707 -1.5407 2.2691
7.8773 -1.5063 2.2691
7.8837 -1.4719 2.2691
7.8900 -1.4374 2.2690
7.8961 -1.4030 2.2690
7.9021 -1.3685 2.2690
7.9079 -1.3340 2.2690
7.9135 -1.2995 2.2690
7.9191 -1.2649 2.2690
7.9244 -1.2304 2.2690
7.9296 -1.1958 2.2690
7.9347 -1.1611 2.2690
7.9396 -1.1265 2.2690
7.9444 -1.0918 2.2690
8.0134 -1.0657 2.2873
8.0777 -1.0384 2.3044
8.0821 -1.0032 2.3044
8.0863 -0.9679 2.3044
8.0904 -0.9326 2.3044
8.0944 -0.8973 2.3044
8.0981 -0.8619 2.3044
7.4611 -0.7613 2.3058
7.4642 -0.7287 2.3058
7.4673 -0.6961 2.3058
7.4702 -0.6635 2.3058
7.4729 -0.6309 2.3058
7.4755 -0.5983 2.3057
7.4780 -0.5657 2.3057
7.4803 -0.5331 2.3057
7.4825 -0.5004 2.3057
7.4845 -0.4678 2.3057
7.4864 -0.4351 2.3057
7.4882 -0.4024 2.3057
7.4898 -0.3697 2.3057
7.4913 -0.3371 2.3057
7.4926 -0.3044 2.3057
7.4938 -0.2717 2.3057
7.4949 -0.2390 2.3057
7.4958 -0.2063 2.3057
7.4966 -0.1735 2.3057
7.4972 -0.1408 2.3057
7.4977 -0.1081 2.3057
7.4980 -0.0754 2.3057
7.4982 -0.0427 2.3057
7.4983 -0.0100 2.3057
7.4982 0.0227 2.3057
7.4980 0.0555 2.3057
7.4977 0.0882 2.3057
7.4972 0.1209 2.3057
7.4965 0.1536 2.3057
7.4958 0.1863 2.3057
7.4948 0.2190 2.3057
7.4938 0.2517 2.3057
7.4926 0.2844 2.3057
7.4912 0.3171 2.3057
7.4898 0.3498 2.3057
7.4881 0.3824 2.3057
7.4864 0.4151 2.3057
7.4845 0.4478 2.3057
7.4824 0.4804 2.3057
7.4802 0.5131 2.3057
7.4779 0.5457 2.3057
7.4754 0.5783 2.3057
7.4728 0.6109 2.3058
7.4701 0.6435 2.3058
7.4672 0.6761 2.3058
7.4642 0.7087 2.3058
7.4610 0.7412 2.3058
7.4577 0.7738 2.3058
7.4542 0.8063 2.3058
7.4506 0.8388 2.3058
7.4469 0.8713 2.3059
7.4430 0.9038 2.3059
7.4390 0.9363 2.3059
7.4349 0.9687 2.3059
7.4306 1.0012 2.3059
7.4261 1.0336 2.3059
7.4216 1.0660 2.3059
7.4169 1.0984 2.3060
7.4120 1.1307 2.3060
7.4070 1.1630 2.3060
7.4019 1.1953 2.3060
7.3966 1.2276 2.3060
7.3912 1.2599 2.3061
7.3857 1.2921 2.3061
7.3800 1.3243 2.3061
7.3742 1.3566 2.3061
7.3682 1.3887 2.3062
7.3621 1.4209 2.3062
7.3559 1.4530 2.3062
7.3495 1.4851 2.3062
7.3430 1.5171 2.3063
7.3363 1.5492 2.3063
7.3295 1.5812 2.3063
7.3226 1.6131 2.3063
7.3155 1.6451 2.3064
7.3083 1.6770 2.3064
7.3010 1.7089 2.3064
7.2935 1.7407 2.3064
7.2859 1.7726 2.3065
7.2781 1.8043 2.3065
7.2702 1.8361 2.3065
7.2622 1.8678 2.3066
7.2540 1.8995 2.3066
7.2457 1.9311 2.3066
7.2373 1.9627 2.3067
7.2287 1.9943 2.3067
7.2200 2.0259 2.3067
7.2112 2.0574 2.3068
7.2022 2.0888 2.3068
7.1931 2.1203 2.3068
7.1838 2.1517 2.3069
7.1744 2.1830 2.3069
7.1649 2.2143 2.3069
7.1552 2.2456 2.3070
7.1454 2.2768 2.3070
7.1355 2.3080 2.3070
7.1255 2.3391 2.3071
7.1153 2.3702 2.3071
7.1049 2.4012 2.3072
7.0945 2.4322 2.3072
7.0839 2.4632 2.3072
7.0731 2.4941 2.3073
7.0623 2.5250 2.3073
7.0513 2.5558 2.3074
7.0401 2.5866 2.3074
7.0289 2.6173 2.3075
7.0175 2.6480 2.3075
7.0059 2.6786 2.3075
6.9943 2.7092 2.3076
6.9825 2.7397 2.3076
6.9706 2.7702 2.3077
6.9585 2.8006 2.3077
6.9463 2.8310 2.3078
6.9340 2.8613 2.3078
6.9215 2.8916 2.3079
6.9090 2.9218 2.3079
6.8962 2.9520 2.3080
6.8834 2.9821 2.3080
6.8704 3.0122 2.3081
6.8573 3.0421 2.3081
6.8441 3.0721 2.3082
6.8307 3.1020 2.3082
6.8173 3.1318 2.3083
6.8036 3.1616 2.3083
6.7899 3.1913 2.3084
6.7760 3.2209 2.3084
6.7620 3.2505 2.3085
6.7479 3.2801 2.3085
6.7336 3.3095 2.3086
6.7192 3.3389 2.3086
6.7047 3.3683 2.3087
6.6901 3.3976 2.3088
6.6753 3.4268 2.3088
6.6604 3.4560 2.3089
6.6454 3.4851 2.3089
6.6303 3.5141 2.3090
6.6150 3.5431 2.3091
6.5996 3.5720 2.3091
6.5841 3.6008 2.3092
6.5685 3.6295 2.3092
6.5527 3.6583 2.3093
6.5368 3.6869 2.3094
6.5208 3.7155 2.3094
6.5046 3.7440 2.3095
6.4884 3.7724 2.3095
6.4720 3.8007 2.3096
6.4555 3.8290 2.3097
6.4389 3.8572 2.3097
6.4221 3.8854 2.3098
6.4052 3.9135 2.3099
6.3882 3.9415 2.3099
6.3711 3.9694 2.3100
6.3539 3.9972 2.3101
6.3365 4.0250 2.3101
6.3191 4.0527 2.3102
6.3015 4.0803 2.3103
6.2837 4.1079 2.3103
6.2659 4.1354 2.3104
6.2480 4.1628 2.3105
6.2299 4.1901 2.3105
6.2117 4.2174 2.3106
6.1934 4.2445 2.3107
6.1749 4.2716 2.3107
6.1564 4.2986 2.3108
6.1378 4.3256 2.3109
6.1190 4.3524 2.3110
6.1001 4.3792 2.3110
6.0811 4.4059 2.3111
6.0620 4.4325 2.3112
6.0427 4.4590 2.3113
6.0234 4.4854 2.3113
6.0039 4.5118 2.3114
5.9843 4.5381 2.3115
5.9646 4.5643 2.3116
5.9448 4.5904 2.3116
5.9249 4.6164 2.3117
5.9048 4.6424 2.3118
5.8847 4.6682 2.3119
5.8644 4.6940 2.3119
5.8441 4.7197 2.3120
5.8236 4.7452 2.3121
5.8030 4.7708 2.3122
5.7846 4.7981 2.3132
5.7689 4.8277 2.3153
5.7532 4.8574 2.3175
5.7373 4.8871 2.3197
5.7214 4.9167 2.3219
5.7053 4.9463 2.3241
5.6891 4.9760 2.3264
5.6728 5.0056 2.3286
5.6564 5.0351 2.3309
5.6398 5.0647 2.3332
5.6232 5.0943 2.3355
5.5253 5.0496 2.3040
5.5032 5.0737 2.3040
5.4810 5.0976 2.3040
5.4586 5.1215 2.3040
5.4362 5.1452 2.3040
5.4137 5.1688 2.3040
5.3910 5.1924 2.3040
5.3683 5.2158 2.3040
5.3455 5.2392 2.3040
5.3225 5.2624 2.3040
5.2995 5.2856 2.3040
5.2763 5.3086 2.3040
5.2531 5.3316 2.3040
5.2298 5.3544 2.3040
5.2063 5.3772 2.3040
5.1828 5.3998 2.3040
5.1591 5.4223 2.3040
5.1354 5.4448 2.3040
5.1116 5.4671 2.3040
5.0876 5.4893 2.3040
5.0636 5.5114 2.3040
5.0395 5.5335 2.3040
5.0153 5.5554 2.3040
4.9910 5.5772 2.3040
4.9665 5.5989 2.3040
4.9420 5.6205 2.3040
4.9174 5.6419 2.3040
4.8928 5.6633 2.3040
4.8680 5.6846 2.3040
4.8431 5.7058 2.3040
4.8181 5.7268 2.3040
4.7931 5.7477 2.3040
4.7679 5.7686 2.3040
4.7427 5.7893 2.3040
4.7173 5.8099 2.3040
4.6919 5.8304 2.3040
4.6664 5.8508 2.3040
4.6408 5.8711 2.3040
4.6151 5.8912 2.3040
4.5894 5.9113 2.3040
4.5635 5.9312 2.3040
4.5375 5.9511 2.3040
4.5115 5.9708 2.3040
4.4854 5.9904 2.3040
4.4592 6.0099 2.3040
4.4329 6.0293 2.3040
4.4065 6.0485 2.3040
4.3801 6.0677 2.3040
4.3535 6.0867 2.3040
4.3269 6.1056 2.3040
4.3002 6.1244 2.3040
4.2734 6.1431 2.3040
4.2466 6.1616 2.3040
4.2196 6.1801 2.3040
4.1926 6.1984 2.3040
4.1655 6.2166 2.3040
4.1383 6.2347 2.3040
4.1110 6.2527 2.3040
4.0837 6.2705 2.3040
4.0563 6.2882 2.3040
4.0288 6.3059 2.3040
4.0012 6.3234 2.3040
3.9736 6.3407 2.3040
3.9458 6.3580 2.3040
3.9180 6.3751 2.3040
3.8902 6.3921 2.3040
3.8622 6.4090 2.3040
3.8342 6.4258 2.3040
3.8061 6.4424 2.3040
3.7779 6.4589 2.3040
3.7497 6.4753 2.3040
3.7214 6.4916 2.3040
3.6930 6.5077 2.3040
3.6646 6.5238 2.3040
3.6360 6.5397 2.3040
3.6075 6.5555 2.3040
3.5788 6.5711 2.3040
3.5501 6.5866 2.3040
3.5213 6.6020 2.3040
3.4924 6.6173 2.3040
3.4635 6.6325 2.3040
3.4345 6.6475 2.3040
3.4055 6.6624 2.3040
3.3763 6.6772 2.3040
3.3472 6.6918 2.3040
3.3179 6.7063 2.3040
3.2886 6.7207 2.3040
3.2592 6.7350 2.3040
3.2298 6.7491 2.3040
3.2003 6.7631 2.3040
3.1708 6.7770 2.3040
3.1411 6.7907 2.3040
3.1115 6.8044 2.3040
3.0817 6.8178 2.3040
3.0519 6.8312 2.3040
3.0221 6.8444 2.3040
2.9922 6.8575 2.3040
2.9622 6.8705 2.3040
2.9322 6.8833 2.3040
2.9021 6.8960 2.3040
2.8720 6.9086 2.3040
2.8418 6.9211 2.3040
2.8116 6.9334 2.3040
2.7813 6.9455 2.3040
2.7509 6.9576 2.3040
2.7205 6.9695 2.3040
2.6901 6.9813 2.3040
2.6596 6.9929 2.3040
2.6290 7.0044 2.3040
2.5984 7.0158 2.3040
2.5678 7.0271 2.3040
2.5371 7.0382 2.3040
2.5064 7.0492 2.3040
2.4756 7.0600 2.3040
2.4447 7.0707 2.3040
2.4138 7.0813 2.3040
2.3829 7.0918 2.3040
2.3519 7.1021 2.3040
1.8743 5.7436 1.8606
1.8466 5.7437 1.8580
1.8191 5.7438 1.8555
1.7915 5.7440 1.8530
1.7641 5.7441 1.8505
1.7367 5.7442 1.8481
1.7095 5.7443 1.8457
1.6822 5.7444 1.8434
1.6551 5.7445 1.8411
1.6280 5.7445 1.8388
1.6054 5.7605 1.8417
1.6042 5.8549 1.8696
1.6030 5.9522 1.8984
1.9138 7.2321 2.3040
1.8823 7.2404 2.3040
1.8506 7.2485 2.3040
1.8190 7.2565 2.3040
1.7873 7.2643 2.3040
1.7556 7.2720 2.3040
1.7291 7.3018 2.3110
0.7326 3.1552 0.9976
0.7188 3.1583 0.9976
0.7050 3.1613 0.9975
0.6912 3.1643 0.9975
0.6774 3.1672 0.9975
0.6635 3.1701 0.9975
0.6497 3.1729 0.9975
0.6358 3.1756 0.9975
0.6219 3.1783 0.9974
0.6081 3.1809 0.9974
0.5942 3.1835 0.9974
0.5803 3.1860 0.9974
0.5663 3.1884 0.9974
0.5524 3.1908 0.9974
0.5385 3.1931 0.9973
0.5245 3.1954 0.9973
0.5106 3.1976 0.9973
0.4966 3.1998 0.9973
0.4826 3.2019 0.9973
0.4686 3.2039 0.9973
0.4546 3.2059 0.9973
0.4406 3.2078 0.9973
0.4266 3.2096 0.9972
0.4126 3.2114 0.9972
0.3986 3.2131 0.9972
0.3846 3.2148 0.9972
0.3705 3.2164 0.9972
0.3565 3.2180 0.9972
0.3424 3.2195 0.9972
0.3284 3.2209 0.9972
0.3143 3.2223 0.9972
0.3003 3.2236 0.9972
0.2862 3.2249 0.9972
0.2721 3.2261 0.9972
0.2580 3.2272 0.9972
0.2439 3.2283 0.9971
0.2298 3.2293 0.9971
0.2158 3.2303 0.9971
0.2017 3.2311 0.9971
0.1876 3.2320 0.9971
0.1734 3.2328 0.9971
0.1593 3.2335 0.9971
0.1452 3.2341 0.9971
0.1311 3.2347 0.9971
0.1170 3.2353 0.9971
0.1029 3.2357 0.9971
0.0888 3.2362 0.9971
0.0746 3.2365 0.9971
0.0605 3.2368 0.9971
0.0464 3.2371 0.9971
0.0323 3.2372 0.9972
0.0181 3.2374 0.9972
0.0040 3.2374 0.9972
-0.0101 3.2374 0.9972
-0.0243 3.2374 0.9972
-0.0384 3.2372 0.9972
-0.0525 3.2371 0.9972
-0.0666 3.2368 0.9972
-0.0808 3.2365 0.9972
-0.0949 3.2362 0.9972
-0.1090 3.2357 0.9972
-0.1231 3.2353 0.9972
-0.1372 3.2347 0.9972
-0.1514 3.2341 0.9972
-0.1655 3.2335 0.9973
-0.1796 3.2327 0.9973
-0.1937 3.2320 0.9973
-0.2078 3.2311 0.9973
-0.2219 3.2302 0.9973
-0.2360 3.2293 0.9973
-0.2501 3.2282 0.9973
-0.2642 3.2272 0.9973
-0.2783 3.2260 0.9974
-0.2923 3.2248 0.9974
-0.3064 3.2236 0.9974
-0.3205 3.2222 0.9974
-0.3345 3.2209 0.9974
-0.3486 3.2194 0.9974
-0.3627 3.2179 0.9975
-0.3767 3.2164 0.9975
-0.3907 3.2148 0.9975
-0.4048 3.2131 0.9975
-0.4188 3.2114 0.9975
-0.4328 3.2096 0.9976
-0.4468 3.2077 0.9976
-0.4608 3.2058 0.9976
-0.4748 3.2038 0.9976
-0.4888 3.2018 0.9976
-0.5028 3.1997 0.9977
-0.5168 3.1976 0.9977
-0.5307 3.1954 0.9977
-0.5447 3.1931 0.9977
-0.5586 3.1907 0.9978
-0.5726 3.1884 0.9978
-0.5865 3.1859 0.9978
-1.4484 7.6797 2.4072
-1.4819 7.6733 2.4072
-1.5154 7.6668 2.4072
-1.5488 7.6601 2.4072
-1.5822 7.6533 2.4072
-1.6156 7.6463 2.4072
-1.6490 7.6392 2.4072
-1.6823 7.6319 2.4072
-1.7156 7.6245 2.4072
-1.7488 7.6169 2.4072
-1.7821 7.6092 2.4072
-1.8152 7.6014 2.4072
-1.8484 7.5934 2.4072
-1.8815 7.5853 2.4072
-1.9146 7.5770 2.4072
-1.9476 7.5686 2.4072
-1.9807 7.5600 2.4072
-2.0136 7.5513 2.4072
-2.0466 7.5424 2.4072
-2.0795 7.5334 2.4072
-2.1123 7.5243 2.4072
-2.1451 7.5150 2.4072
-2.1779 7.5055 2.4072
-2.2106 7.4960 2.4072
-2.2433 7.4863 2.4072
-2.2760 7.4764 2.4072
-2.3086 7.4664 2.4072
-2.3411 7.4563 2.4072
-2.3737 7.4460 2.4072
-2.4061 7.4356 2.4072
-2.4386 7.4250 2.4072
-2.4709 7.4143 2.4072
-2.5033 7.4034 2.4072
-2.5356 7.3925 2.4072
-2.5678 7.3813 2.4072
-2.6000 7.3701 2.4072
-2.6321 7.3587 2.4072
-2.6642 7.3471 2.4072
-2.6963 7.3354 2.4072
-2.7282 7.3236 2.4072
-2.7602 7.3116 2.4072
-2.7921 7.2995 2.4072
-2.8239 7.2873 2.4072
-2.8557 7.2749 2.4072
-2.8874 7.2623 2.4072
-2.9190 7.2497 2.4072
-2.9507 7.2369 2.4072
-2.9822 7.2239 2.4072
-3.0137 7.2109 2.4072
-3.0452 7.1977 2.4072
-3.0765 7.1843 2.4072
-3.1079 7.1708 2.4072
-3.1391 7.1572 2.4072
-3.1703 7.1435 2.4072
-3.2015 7.1296 2.4072
-3.2326 7.1155 2.4072
-3.2636 7.1014 2.4072
-3.2946 7.0871 2.4072
-3.3255 7.0726 2.4072
-3.3563 7.0581 2.4072
-3.3871 7.0434 2.4072
-3.4178 7.0285 2.4072
-3.4484 7.0136 2.4072
-3.4790 6.9984 2.4072
-3.5095 6.9832 2.4072
-3.5400 6.9679 2.4072
-3.5703 6.9523 2.4072
-3.6007 6.9367 2.4072
-3.6309 6.9209 2.4072
-3.6611 6.9050 2.4072
-3.6912 6.8890 2.4072
-3.7212 6.8729 2.4072
-3.7512 6.8565 2.4072
-3.7811 6.8401 2.4072
-3.8109 6.8236 2.4072
-3.8406 6.8069 2.4072
-3.8703 6.7901 2.4072
-3.8999 6.7731 2.4072
-3.9294 6.7561 2.4072
-3.9589 6.7389 2.4072
-3.9883 6.7215 2.4072
-4.0176 6.7041 2.4072
-4.0468 6.6865 2.4072
-4.0759 6.6688 2.4072
-4.1050 6.6510 2.4072
-4.1340 6.6330 2.4072
-4.1629 6.6149 2.4072
-4.1918 6.5967 2.4072
-4.2205 6.5784 2.4072
-4.2492 6.5599 2.4072
-4.2778 6.5413 2.4072
-4.3063 6.5226 2.4072
-4.3347 6.5038 2.4072
-4.3631 6.4848 2.4072
-4.3914 6.4657 2.4072
-4.4195 6.4465 2.4072
-4.4476 6.4272 2.4072
-4.4757 6.4077 2.4072
-4.5036 6.3881 2.4072
-4.5314 6.3684 2.4072
-4.5592 6.3486 2.4072
-4.5869 6.3287 2.4072
-4.6144 6.3086 2.4072
-4.6419 6.2884 2.4072
-4.6693 6.2681 2.4072
-4.6967 6.2477 2.4072
-4.7239 6.2272 2.4072
-4.7510 6.2065 2.4072
-4.7781 6.1857 2.4072
-4.8051 6.1649 2.4072
-4.8319 6.1439 2.4072
-4.8587 6.1227 2.4072
-4.8854 6.1015 2.4072
-4.9120 6.0801 2.4072
-4.9385 6.0586 2.4072
-4.9649 6.0371 2.4072
-4.9912 6.0153 2.4072
-5.0174 5.9935 2.4072
-5.0435 5.9716 2.4072
-5.0696 5.9495 2.4072
-5.0955 5.9274 2.4072
-5.1213 5.9051 2.4072
-5.1471 5.8827 2.4072
-5.1727 5.8602 2.4072
-5.1982 5.8376 2.4072
-5.2237 5.8149 2.4072
-5.2490 5.7921 2.4072
-5.2743 5.7691 2.4072
-5.2994 5.7461 2.4072
-5.3244 5.7229 2.4072
-5.3494 5.6996 2.4072
-5.3742 5.6763 2.4072
-5.3990 5.6528 2.4072
-5.4236 5.6292 2.4072
-5.4481 5.6055 2.4072
-5.4726 5.5817 2.4072
-5.4969 5.5577 2.4072
-5.5211 5.5337 2.4072
-5.5452 5.5096 2.4072
-5.5692 5.4854 2.4072
-5.5931 5.4610 2.4072
-5.6169 5.4366 2.4072
-5.6406 5.4120 2.4072
-5.6642 5.3874 2.4072
-5.6877 5.3626 2.4072
-5.7110 5.3378 2.4072
-5.7343 5.3128 2.4072
-5.7574 5.2878 2.4072
-5.7805 5.2626 2.4072
-5.8034 5.2374 2.4072
-5.8262 5.2120 2.4072
-5.8489 5.1866 2.4072
-5.8716 5.1610 2.4072
-5.8940 5.1354 2.4072
-5.9164 5.1096 2.4072
-5.9387 5.0838 2.4072
-5.9608 5.0578 2.4072
-5.9829 5.0318 2.4072
-6.0048 5.0057 2.4072
-6.0266 4.9794 2.4072
-6.0483 4.9531 2.4072
-6.0699 4.9267 2.4072
-6.0913 4.9001 2.4072
-6.1127 4.8735 2.4072
-6.1339 4.8468 2.4072
-6.1550 4.8200 2.4072
-6.1760 4.7932 2.4072
-6.1969 4.7662 2.4072
-6.2177 4.7391 2.4072
-6.2383 4.7120 2.4072
-6.2589 4.6847 2.4072
-6.2793 4.6574 2.4072
-6.2996 4.6299 2.4072
-6.3197 4.6024 2.4072
-6.3398 4.5748 2.4072
-6.3597 4.5471 2.4072
-6.3795 4.5194 2.4072
-6.3992 4.4915 2.4072
-6.4188 4.4636 2.4072
-6.4382 4.4355 2.4072
-6.4575 4.4074 2.4072
-6.4767 4.3792 2.4072
-6.4958 4.3509 2.4072
-6.5148 4.3226 2.4072
-6.5286 4.2908 2.4054
-6.5286 4.2501 2.3985
-6.5286 4.2097 2.3917
-6.5286 4.1695 2.3850
-6.5286 4.1295 2.3784
-6.5286 4.0897 2.3719
-6.5286 4.0501 2.3654
-6.5286 4.0108 2.3590
-6.5289 3.9718 2.3528
-6.5302 3.9337 2.3471
-6.5315 3.8957 2.3414
-6.5328 3.8580 2.3358
-6.5341 3.8204 2.3303
-6.5353 3.7829 2.3248
-6.5366 3.7457 2.3194
-6.5378 3.7086 2.3141
-6.5391 3.6716 2.3088
-6.5417 3.6357 2.3041
-6.5576 3.6071 2.3041
-6.5733 3.5785 2.3041
-6.5889 3.5498 2.3041
-6.6043 3.5210 2.3041
-6.6196 3.4922 2.3041
-6.6349 3.4633 2.3041
-6.6499 3.4343 2.3041
-6.6649 3.4053 2.3041
-6.6797 3.3762 2.3041
-6.6944 3.3470 2.3041
-6.7206 3.3235 2.3081
-6.7234 3.2885 2.3041
-6.7378 3.2591 2.3041
-6.7520 3.2297 2.3041
-6.7660 3.2002 2.3041
-6.7800 3.1707 2.3041
-6.7938 3.1411 2.3041
-6.8074 3.1115 2.3041
-6.8210 3.0817 2.3041
-6.8344 3.0520 2.3041
-6.8477 3.0221 2.3041
-6.8608 2.9922 2.3041
-6.8739 2.9623 2.3041
-6.8868 2.9323 2.3041
-6.8995 2.9022 2.3041
-6.9122 2.8721 2.3041
-6.9247 2.8419 2.3041
-6.9370 2.8117 2.3041
-6.9493 2.7814 2.3041
-6.9614 2.7511 2.3041
-6.9734 2.7207 2.3041
-6.9852 2.6902 2.3041
-6.9969 2.6597 2.3041
-7.0085 2.6292 2.3041
-7.0199 2.5986 2.3041
-7.0312 2.5680 2.3041
-7.0424 2.5373 2.3041
-7.0535 2.5065 2.3041
-7.0644 2.4757 2.3041
-7.0751 2.4449 2.3041
-7.0858 2.4140 2.3041
-7.0963 2.3831 2.3041
-7.1067 2.3521 2.3041
-7.1169 2.3211 2.3041
-7.1270 2.2900 2.3041
-7.1370 2.2589 2.3041
-7.1468 2.2278 2.3041
-7.1565 2.1966 2.3041
-7.1660 2.1653 2.3041
-7.1754 2.1341 2.3041
-7.1847 2.1027 2.3041
-7.1939 2.0714 2.3041
-7.2029 2.0400 2.3041
-7.2118 2.0085 2.3041
-7.2205 1.9771 2.3041
-7.2291 1.9456 2.3041
-7.2376 1.9140 2.3041
-7.2459 1.8824 2.3041
-7.2541 1.8508 2.3041
-7.2621 1.8191 2.3041
-7.2700 1.7874 2.3041
-7.2778 1.7557 2.3041
-7.2854 1.7239 2.3041
-7.2929 1.6921 2.3041
-7.3003 1.6603 2.3041
-7.3075 1.6284 2.3041
-7.3146 1.5966 2.3041
-7.3215 1.5646 2.3041
-7.3283 1.5327 2.3041
-7.3350 1.5007 2.3041
-7.3415 1.4687 2.3041
-7.3479 1.4366 2.3041
-7.3541 1.4046 2.3041
-7.3602 1.3725 2.3041
-7.3662 1.3404 2.3041
-7.3720 1.3082 2.3041
-7.3777 1.2760 2.3041
-7.3832 1.2438 2.3041
-7.3886 1.2116 2.3041
-7.3939 1.1794 2.3041
-7.3990 1.1471 2.3041
-7.4040 1.1148 2.3041
-7.4088 1.0825 2.3041
-7.4135 1.0502 2.3041
-7.4181 1.0178 2.3041
-7.4225 0.9854 2.3041
-7.4268 0.9531 2.3041
-7.4309 0.9206 2.3041
-7.4349 0.8882 2.3041
-7.4387 0.8558 2.3041
-7.4424 0.8233 2.3041
-7.4460 0.7908 2.3041
-7.4494 0.7583 2.3041
-7.4527 0.7258 2.3041
-7.4558 0.6933 2.3041
-7.4588 0.6608 2.3041
-7.4617 0.6282 2.3041
-7.4644 0.5957 2.3041
-7.4670 0.5631 2.3041
-7.4694 0.5305 2.3041
-7.4717 0.4979 2.3041
-7.4739 0.4653 2.3041
-7.4759 0.4327 2.3041
-7.4777 0.4001 2.3041
-7.4794 0.3674 2.3041
-7.4810 0.3348 2.3041
-7.4825 0.3022 2.3041
-7.4837 0.2695 2.3041
-7.4849 0.2368 2.3041
-7.4859 0.2042 2.3041
-7.4868 0.1715 2.3041
-7.4875 0.1389 2.3041
-7.4881 0.1062 2.3041
-7.4885 0.0735 2.3041
-7.4888 0.0408 2.3041
-7.4890 0.0082 2.3041
-7.4890 -0.0245 2.3041
-7.4888 -0.0572 2.3041
-7.4886 -0.0899 2.3041
-7.4881 -0.1226 2.3041
-7.4876 -0.1552 2.3041
-7.4869 -0.1879 2.3041
-7.4860 -0.2206 2.3041
-7.4850 -0.2532 2.3041
-7.4839 -0.2859 2.3041
-7.4826 -0.3185 2.3041
-7.4812 -0.3512 2.3041
-7.4797 -0.3838 2.3041
-7.4780 -0.4165 2.3041
-7.4761 -0.4491 2.3041
-7.4741 -0.4817 2.3041
-7.4720 -0.5143 2.3041
-7.4698 -0.5469 2.3041
-7.4673 -0.5795 2.3041
-7.4648 -0.6121 2.3041
-7.4621 -0.6447 2.3041
-7.4593 -0.6772 2.3041
-7.4563 -0.7098 2.3041
-7.4532 -0.7423 2.3041
-7.4499 -0.7748 2.3041
-7.4465 -0.8073 2.3041
-7.4429 -0.8398 2.3041
-7.4393 -0.8723 2.3041
-7.4354 -0.9048 2.3041
-7.4314 -0.9372 2.3041
-7.4273 -0.9696 2.3041
-7.4231 -1.0020 2.3041
-7.4187 -1.0344 2.3041
-7.4141 -1.0668 2.3041
-7.4095 -1.0991 2.3041
-7.4046 -1.1315 2.3041
-7.3997 -1.1638 2.3041
-7.3946 -1.1960 2.3041
-7.3893 -1.2283 2.3041
-7.3840 -1.2605 2.3041
-7.3784 -1.2928 2.3041
-7.3728 -1.3250 2.3041
-7.3670 -1.3571 2.3041
-7.3610 -1.3893 2.3041
-7.3549 -1.4214 2.3041
-7.3487 -1.4534 2.3041
-7.3423 -1.4855 2.3041
-7.3358 -1.5176 2.3041
-7.3292 -1.5496 2.3041
-7.3224 -1.5815 2.3041
-7.3155 -1.6135 2.3041
-7.3084 -1.6454 2.3041
-7.3012 -1.6773 2.3041
-7.2939 -1.7091 2.3041
-7.2864 -1.7409 2.3041
-7.2788 -1.7727 2.3041
-7.2710 -1.8045 2.3041
-7.2631 -1.8362 2.3041
-7.2551 -1.8679 2.3041
-7.2469 -1.8995 2.3041
-7.2386 -1.9311 2.3041
-7.2301 -1.9627 2.3041
-7.2215 -1.9943 2.3041
-7.2128 -2.0258 2.3041
-7.2040 -2.0572 2.3041
-7.1950 -2.0887 2.3041
-7.1858 -2.1201 2.3041
-7.1766 -2.1514 2.3041
-7.1671 -2.1827 2.3041
-7.1576 -2.2140 2.3041
-7.1479 -2.2452 2.3041
-7.1381 -2.2764 2.3041
-7.1281 -2.3075 2.3041
-7.1180 -2.3386 2.3041
-7.1078 -2.3697 2.3041
-7.0975 -2.4007 2.3041
-7.0870 -2.4316 2.3041
-7.0763 -2.4625 2.3041
-7.0655 -2.4934 2.3041
-7.0547 -2.5242 2.3041
-7.0436 -2.5550 2.3041
-7.0324 -2.5857 2.3041
-7.0211 -2.6164 2.3041
-7.0097 -2.6470 2.3041
-6.9981 -2.6776 2.3041
-6.9864 -2.7081 2.3041
-6.9746 -2.7386 2.3041
-6.9626 -2.7690 2.3041
-6.9505 -2.7994 2.3041
-6.9383 -2.8297 2.3041
-6.9259 -2.8600 2.3041
-6.9134 -2.8902 2.3041
-6.9008 -2.9203 2.3041
-6.8880 -2.9504 2.3041
-6.8751 -2.9805 2.3041
-6.8621 -3.0105 2.3041
-6.8489 -3.0404 2.3041
-6.8356 -3.0703 2.3041
-6.8222 -3.1001 2.3041
-6.8086 -3.1298 2.3041
-6.7950 -3.1595 2.3041
-6.7812 -3.1892 2.3041
-6.7672 -3.2188 2.3041
-6.7532 -3.2483 2.3041
-6.7390 -3.2777 2.3041
-6.7246 -3.3071 2.3041
-6.7207 -3.3417 2.3077
-6.6956 -3.3657 2.3041
-6.6809 -3.3949 2.3041
-6.6661 -3.4241 2.3041
-6.6511 -3.4531 2.3041
-6.6360 -3.4821 2.3041
-6.6208 -3.5111 2.3041
-6.6054 -3.5400 2.3041
-6.5900 -3.5688 2.3041
-6.5744 -3.5975 2.3041
-6.5587 -3.6262 2.3041
-6.5428 -3.6548 2.3041
-6.5391 -3.6902 2.3085
-6.5379 -3.7273 2.3137
-6.5367 -3.7644 2.3191
-6.5354 -3.8018 2.3245
-6.5342 -3.8393 2.3300
-6.5329 -3.8770 2.3355
-6.5316 -3.9149 2.3411
-6.5303 -3.9529 2.3468
-6.5289 -3.9911 2.3525
-6.5286 -4.0301 2.3587
-6.5286 -4.0696 2.3651
-6.5286 -4.1093 2.3715
-6.5286 -4.1491 2.3781
-6.5286 -4.1893 2.3847
-6.5286 -4.2296 2.3914
-6.5286 -4.2701 2.3982
-6.5286 -4.3109 2.4050
-6.5156 -4.3433 2.4072
-6.4966 -4.3717 2.4072
-6.4775 -4.4000 2.4072
-6.4583 -4.4283 2.4072
-6.4390 -4.4564 2.4072
-6.4195 -4.4845 2.4072
-6.3999 -4.5125 2.4072
-6.3802 -4.5404 2.4072
-6.3604 -4.5682 2.4072
-6.3404 -4.5960 2.4072
-6.3203 -4.6236 2.4072
-6.3001 -4.6512 2.4072
-6.2798 -4.6786 2.4072
-6.2594 -4.7060 2.4072
-6.2388 -4.7333 2.4072
-6.2181 -4.7605 2.4072
-6.1973 -4.7876 2.4072
-6.1764 -4.8146 2.4072
-6.1554 -4.8416 2.4072
-6.1343 -4.8684 2.4072
-6.1130 -4.8951 2.4072
-6.0916 -4.9218 2.4072
-6.0701 -4.9484 2.4072
-6.0485 -4.9748 2.4072
-6.0268 -5.0012 2.4072
-6.0049 -5.0275 2.4072
-5.9830 -5.0537 2.4072
-5.9609 -5.0797 2.4072
-5.9387 -5.1057 2.4072
-5.9164 -5.1316 2.4072
-5.8940 -5.1574 2.4072
-5.8715 -5.1831 2.4072
-5.8488 -5.2087 2.4072
-5.8261 -5.2342 2.4072
-5.8032 -5.2596 2.4072
-5.7802 -5.2849 2.4072
-5.7572 -5.3101 2.4072
-5.7340 -5.3352 2.4072
-5.7107 -5.3602 2.4072
-5.6873 -5.3851 2.4072
-5.6637 -5.4099 2.4072
-5.6401 -5.4346 2.4072
-5.6164 -5.4591 2.4072
-5.5925 -5.4836 2.4072
-5.5686 -5.5080 2.4072
-5.5445 -5.5323 2.4072
-5.5204 -5.5564 2.4072
-5.4961 -5.5805 2.4072
-5.4717 -5.6045 2.4072
-5.4472 -5.6283 2.4072
-5.4227 -5.6520 2.4072
-5.3980 -5.6757 2.4072
-5.3732 -5.6992 2.4072
-5.3483 -5.7226 2.4072
-5.3233 -5.7459 2.4072
-5.2982 -5.7691 2.4072
-5.2730 -5.7922 2.4072
-5.2477 -5.8152 2.4072
-5.2223 -5.8381 2.4072
-5.1968 -5.8608 2.4072
-5.1713 -5.8835 2.4072
-5.1456 -5.9060 2.4072
-5.1198 -5.9285 2.4072
-5.0939 -5.9508 2.4072
-5.0679 -5.9730 2.4072
-5.0418 -5.9950 2.4072
-5.0156 -6.0170 2.4072
-4.9894 -6.0389 2.4072
-4.9630 -6.0606 2.4072
-4.9365 -6.0822 2.4072
-4.9100 -6.1037 2.4072
-4.8833 -6.1251 2.4072
-4.8566 -6.1464 2.4072
-4.8297 -6.1676 2.4072
-4.8028 -6.1886 2.4072
-4.7758 -6.2095 2.4072
-4.7486 -6.2303 2.4072
-4.7214 -6.2510 2.4072
-4.6941 -6.2716 2.4072
-4.6668 -6.2920 2.4072
-4.6393 -6.3124 2.4072
-4.6117 -6.3326 2.4072
-4.5841 -6.3527 2.4072
-4.5563 -6.3727 2.4072
-4.5285 -6.3925 2.4072
-4.5006 -6.4122 2.4072
-4.4726 -6.4318 2.4072
-4.4445 -6.4513 2.4072
-4.4163 -6.4707 2.4072
-4.3881 -6.4899 2.4072
-4.3598 -6.5090 2.4072
-4.3313 -6.5280 2.4072
-4.3028 -6.5469 2.4072
-4.2742 -6.5656 2.4072
-4.2456 -6.5842 2.4072
-4.2168 -6.6027 2.4072
-4.1880 -6.6211 2.4072
-4.1591 -6.6393 2.4072
-4.1301 -6.6574 2.4072
-4.1010 -6.6754 2.4072
-4.0719 -6.6933 2.4072
-4.0427 -6.7110 2.4072
-4.0134 -6.7286 2.4072
-3.9840 -6.7461 2.4072
-3.9545 -6.7634 2.4072
-3.9250 -6.7806 2.4072
-3.8954 -6.7977 2.4072
-3.8657 -6.8147 2.4072
-3.8360 -6.8315 2.4072
-3.8061 -6.8482 2.4072
-3.7762 -6.8648 2.4072
-3.7463 -6.8812 2.4072
-3.7162 -6.8975 2.4072
-3.6861 -6.9137 2.4072
-3.6559 -6.9298 2.4072
-3.6257 -6.9457 2.4072
-3.5953 -6.9614 2.4072
-3.5650 -6.9771 2.4072
-3.5345 -6.9926 2.4072
-3.5040 -7.0080 2.4072
-3.4734 -7.0232 2.4072
-3.4427 -7.0384 2.4072
-3.4120 -7.0533 2.4072
-3.3812 -7.0682 2.4072
-3.3503 -7.0829 2.4072
-3.3194 -7.0975 2.4072
-3.2884 -7.1119 2.4072
-3.2574 -7.1262 2.4072
-3.2263 -7.1404 2.4072
-3.1951 -7.1544 2.4072
-3.1639 -7.1683 2.4072
-3.1326 -7.1821 2.4072
-3.1012 -7.1957 2.4072
-3.0698 -7.2092 2.4072
-3.0383 -7.2225 2.4072
-3.0068 -7.2357 2.4072
-2.9752 -7.2488 2.4072
-2.9436 -7.2618 2.4072
-2.9119 -7.2746 2.4072
-2.8801 -7.2872 2.4072
-2.8483 -7.2997 2.4072
-2.8164 -7.3121 2.4072
-2.7845 -7.3244 2.4072
-2.7526 -7.3365 2.4072
-2.7205 -7.3484 2.4072
-2.6885 -7.3603 2.4072
-2.6563 -7.3719 2.4072
-2.6241 -7.3835 2.4072
-2.5919 -7.3949 2.4072
-2.5596 -7.4061 2.4072
-2.5273 -7.4173 2.4072
-2.4949 -7.4282 2.4072
-2.4625 -7.4391 2.4072
-2.4300 -7.4498 2.4072
-2.3975 -7.4603 2.4072
-2.3650 -7.4707 2.4072
-2.3324 -7.4810 2.4072
-2.2997 -7.4911 2.4072
-2.2670 -7.5011 2.4072
-2.2343 -7.5110 2.4072
-2.2015 -7.5207 2.4072
-2.1686 -7.5302 2.4072
-2.1358 -7.5396 2.4072
-2.1029 -7.5489 2.4072
-2.0699 -7.5580 2.4072
-2.0369 -7.5670 2.4072
-2.0039 -7.5759 2.4072
-1.9708 -7.5845 2.4072
-1.9377 -7.5931 2.4072
-1.9046 -7.6015 2.4072
-1.8714 -7.6097 2.4072
-1.8382 -7.6178 2.4072
-1.8050 -7.6258 2.4072
-1.7717 -7.6336 2.4072
-1.7384 -7.6413 2.4072
-1.7050 -7.6489 2.4072
-1.6716 -7.6562 2.4072
-1.6382 -7.6635 2.4072
-1.6048 -7.6706 2.4072
-1.5713 -7.6775 2.4072
-1.5378 -7.6843 2.4072
-1.5043 -7.6910 2.4072
-1.4707 -7.6975 2.4072
-1.4371 -7.7038 2.4072
-1.4035 -7.7101 2.4072
-1.3698 -7.7161 2.4072
-1.3362 -7.7220 2.4072
-1.3024 -7.7278 2.4072
-1.2687 -7.7335 2.4072
-1.2350 -7.7389 2.4072
-1.2012 -7.7443 2.4072
-1.1674 -7.7495 2.4072
-1.1336 -7.7545 2.4072
-1.0997 -7.7594 2.4072
-1.0659 -7.7641 2.4072
-1.0320 -7.7687 2.4072
-0.9981 -7.7731 2.4072
-0.9642 -7.7774 2.4072
-0.9302 -7.7816 2.4072
-0.8963 -7.7856 2.4072
-0.8623 -7.7895 2.4072
-0.8283 -7.7931 2.4072
-0.7943 -7.7967 2.4072
-0.7603 -7.8001 2.4072
-0.7263 -7.8034 2.4072
-0.6922 -7.8065 2.4072
-0.6582 -7.8094 2.4072
-0.6241 -7.8122 2.4072
-0.5900 -7.8149 2.4072
-0.5559 -7.8174 2.4072
-0.5218 -7.8198 2.4072
-0.4877 -7.8220 2.4072
-0.4535 -7.8241 2.4072
-0.4194 -7.8260 2.4072
-0.3852 -7.8278 2.4072
-0.3511 -7.8294 2.4072
-0.3169 -7.8308 2.4072
-0.2828 -7.8322 2.4072
-0.2486 -7.8333 2.4072
-0.2144 -7.8344 2.4072
-0.1802 -7.8352 2.4072
-0.1460 -7.8360 2.4072
-0.1119 -7.8365 2.4072
-0.0777 -7.8370 2.4072
-0.0435 -7.8372 2.4072
-0.0093 -7.8373 2.4072
0.0249 -7.8373 2.4072
0.0591 -7.8371 2.4072
0.0933 -7.8368 2.4072
0.1275 -7.8363 2.4072
0.1617 -7.8357 2.4072
0.1959 -7.8350 2.4072
0.2300 -7.8340 2.4072
0.2642 -7.8330 2.4072
0.2984 -7.8318 2.4072
